-1.581368,-1.566678,-1.712739,-1.832263,-1.977856,-2.131164,-2.305571,-2.541117,-2.839775,-2.639982,-2.428948,-2.293273,-2.138131,-2.017732,-1.848837,-1.712965,-1.324359,-0.906085,-0.737492,-0.562168,-0.428207,-0.286137,-0.152573,-0.004882,0.215955,0.338948,0.367580,0.419363,0.438711,0.468678,0.460633,0.448345,0.276093,0.244860,0.367426,0.459382,0.601347,0.725622,0.916359,1.099574,1.576083,1.950307,2.050372,2.188547,2.270226,2.382625,2.454323,2.572791,2.562816,2.343396,2.275384,2.230497,2.226664,2.228446,2.273142,2.334858,2.558174,2.593020,2.498829,2.436741,2.347501,2.264867,2.155635,2.015124,1.798355,1.963078,2.148945,2.296434,2.451561,2.608088,2.787088,3.008364,3.326759,3.267553,3.168894,3.129111,3.087700,3.075570,3.062488,3.093141,3.095660,2.878130,2.734319,2.626401,2.545116,2.485936,2.453096,2.474883,2.538309,2.191273,1.897700,1.655110,1.449919,1.260154,1.122408,1.014071,1.135593,0.981358,0.626048,0.323088,-0.034274,-0.371576,-0.773350,-1.183156,-1.848863,-2.289162,-2.518523,-2.803494,-3.053400,-3.349068,-3.635660,-4.018602,-4.454579,-4.303995,-4.120845,-4.042218,-3.921334,-3.854359,-3.703537,-3.601009,-3.097356,-2.610340,-2.503206,-2.385895,-2.328997,-2.269967,-2.222879,-2.189431,-2.034992,-1.766703,-1.678289,-1.584526,-1.537254,-1.474021,-1.440485,-1.368552,-1.384108,-1.678076,-1.835955,-1.981733,-2.068277,-2.176551,-2.192615,-2.255085,-1.820531,-1.257916,-1.237263,-1.200097,-1.285489,-1.360234,-1.510313,-1.694129,-1.898707,-1.668578,-1.597128,-1.559772,-1.604631,-1.655488,-1.790973,-1.960808,-2.357758,-2.391282,-2.304455,-2.286901,-2.254798,-2.274924,-2.262648,-2.364035,-2.132582,-1.182031,-0.751345,-0.370720,-0.145422,0.085379,0.190219,0.281339,0.127522,0.329760,0.596502,0.832136,1.031145,1.230663,1.385531,1.539614,1.650388,1.903999,2.077615,2.263555,2.375076,2.515727,2.554376,2.630336,2.340746,2.066546,2.082511,2.092262,2.125569,2.154506,2.171004,2.163799,2.134088,2.426356,2.625189,2.821507,2.937742,3.093109,3.125864,3.238436,2.808538,2.120221,1.954005,1.804100,1.719161,1.639260,1.533259,1.431553,0.966692,0.635942,0.697324,0.728158,0.834826,0.948527,1.079406,1.294775,1.251438,0.503393,0.223559,-0.006827,-0.099091,-0.183835,-0.174622,-0.105860,-0.001990,-0.565149,-0.919994,-1.230482,-1.434862,-1.652513,-1.769705,-1.909215,-1.821008,-1.799045,-1.885268,-1.978072,-2.045773,-2.129846,-2.162256,-2.218858,-2.094325,-1.960947,-1.953781,-1.952674,-1.943871,-1.940864,-1.895753,-1.841153
-1.556267,-1.547399,-1.692637,-1.811496,-1.954158,-2.104937,-2.274341,-2.504984,-2.789714,-2.580111,-2.366903,-2.227823,-2.070616,-1.947199,-1.776069,-1.636350,-1.245704,-0.833704,-0.669047,-0.496413,-0.364857,-0.224671,-0.093179,0.052990,0.270108,0.387757,0.413856,0.463161,0.480812,0.508914,0.499765,0.485859,0.315465,0.289867,0.413805,0.507305,0.649588,0.774833,0.965370,1.149857,1.623287,1.986429,2.080196,2.212876,2.289711,2.397311,2.464031,2.576915,2.559039,2.338507,2.270881,2.225548,2.221313,2.222596,2.266391,2.327561,2.546469,2.573951,2.477516,2.412998,2.322903,2.239053,2.130254,1.989989,1.779989,1.949168,2.133148,2.279576,2.431894,2.586221,2.761087,2.978680,3.286136,3.217853,3.116227,3.072930,3.028720,3.013454,2.997005,3.023760,3.019202,2.798441,2.654155,2.544946,2.462524,2.401834,2.366713,2.385691,2.440051,2.088050,1.795931,1.553580,1.349930,1.161141,1.024661,0.917631,1.035514,0.872745,0.517199,0.213137,-0.142360,-0.479071,-0.877466,-1.285695,-1.942663,-2.369713,-2.590630,-2.868074,-3.109949,-3.398087,-3.675127,-4.048613,-4.464717,-4.299219,-4.110657,-4.025104,-3.899060,-3.825704,-3.669580,-3.559515,-3.051706,-2.573081,-2.469405,-2.353992,-2.297780,-2.238906,-2.191172,-2.156209,-1.999312,-1.734677,-1.649216,-1.557662,-1.512306,-1.450882,-1.419327,-1.349884,-1.370938,-1.664102,-1.817849,-1.960325,-2.042432,-2.146148,-2.156654,-2.211629,-1.770394,-1.219883,-1.205223,-1.172543,-1.259615,-1.336099,-1.485005,-1.667510,-1.863037,-1.630982,-1.561381,-1.525209,-1.570471,-1.621907,-1.756079,-1.925248,-2.313443,-2.336494,-2.245862,-2.224172,-2.188072,-2.203587,-2.185115,-2.278002,-2.029684,-1.083482,-0.662009,-0.287609,-0.068663,0.156588,0.256710,0.343155,0.191077,0.396928,0.660175,0.892887,1.087551,1.283215,1.433698,1.583848,1.691954,1.941336,2.108686,2.288701,2.393752,2.527775,2.559622,2.627481,2.331977,2.062792,2.079302,2.088602,2.120432,2.147761,2.162579,2.153932,2.126604,2.417237,2.609529,2.799913,2.908635,3.056243,3.079846,3.180980,2.738492,2.058119,1.896237,1.748244,1.663742,1.583360,1.476162,1.371573,0.907498,0.588961,0.653965,0.687662,0.793655,0.906625,1.033003,1.242352,1.182951,0.438400,0.165884,-0.059572,-0.148003,-0.229512,-0.219398,-0.150598,-0.056841,-0.620605,-0.968086,-1.272926,-1.470577,-1.682012,-1.792729,-1.925433,-1.832144,-1.810316,-1.893661,-1.983216,-2.046953,-2.126900,-2.154868,-2.206352,-2.077341,-1.944824,-1.936743,-1.934071,-1.923391,-1.918170,-1.871156,-1.813991
-1.536798,-1.533782,-1.678739,-1.797377,-1.937618,-2.086413,-2.251402,-2.477962,-2.749692,-2.529375,-2.313159,-2.170108,-2.010218,-1.883280,-1.709240,-1.565102,-1.170911,-0.763690,-0.602387,-0.431817,-0.302194,-0.163379,-0.033482,0.111701,0.325885,0.438576,0.462213,0.509201,0.525204,0.551526,0.541227,0.525632,0.356469,0.336471,0.462267,0.557682,0.700827,0.827528,1.018586,1.205060,1.677174,2.030491,2.118246,2.245876,2.318104,2.421260,2.483201,2.590868,2.564937,2.342442,2.274949,2.228994,2.224336,2.225121,2.268169,2.329019,2.544303,2.564444,2.465374,2.398154,2.306853,2.221455,2.112681,1.972132,1.768178,1.942505,2.125275,2.271185,2.421243,2.573931,2.745283,2.959978,3.257541,3.179822,3.074809,3.027795,2.980588,2.962093,2.942179,2.965094,2.953363,2.728497,2.583183,2.472255,2.388369,2.325923,2.288363,2.304572,2.349972,1.991615,1.699857,1.456828,1.253961,1.065444,0.929725,0.823610,0.938262,0.766247,0.409112,0.102782,-0.252179,-0.589572,-0.986062,-1.394246,-2.044873,-2.460150,-2.673369,-2.944256,-3.178929,-3.460548,-3.728983,-4.094327,-4.491918,-4.310712,-4.115962,-4.023082,-3.891344,-3.811258,-3.649181,-3.531078,-3.017137,-2.545179,-2.444607,-2.330674,-2.274943,-2.216003,-2.167435,-2.130806,-1.970828,-1.708884,-1.626083,-1.536416,-1.492824,-1.432997,-1.403325,-1.336135,-1.362828,-1.656291,-1.806446,-1.946124,-2.024056,-2.123557,-2.128483,-2.176091,-1.726425,-1.186062,-1.177405,-1.149137,-1.238238,-1.316769,-1.465055,-1.646929,-1.834046,-1.599162,-1.531167,-1.496054,-1.541896,-1.594114,-1.727467,-1.896605,-2.277423,-2.289972,-2.195148,-2.169195,-2.128917,-2.139828,-2.115022,-2.199668,-1.933355,-0.987959,-0.574200,-0.204673,0.008683,0.229179,0.324910,0.406956,0.256058,0.466344,0.727058,0.957699,1.148709,1.341219,1.487840,1.634585,1.740403,1.986456,2.148106,2.322814,2.421722,2.549553,2.574644,2.634569,2.331965,2.066828,2.083952,2.092830,2.123287,2.149096,2.162271,2.152134,2.127110,2.417195,2.603605,2.788711,2.890250,3.030573,3.045013,3.134967,2.678071,2.003147,1.845031,1.698409,1.614029,1.532856,1.424039,1.316138,0.851096,0.543696,0.612610,0.649329,0.755042,0.867702,0.990008,1.194066,1.118199,0.374354,0.108201,-0.113125,-0.198017,-0.276565,-0.265502,-0.196401,-0.112514,-0.679029,-1.020385,-1.320672,-1.512269,-1.718223,-1.822814,-1.949140,-1.850359,-1.828584,-1.909335,-1.995947,-2.055917,-2.131996,-2.155580,-2.202085,-2.068056,-1.935908,-1.926869,-1.922607,-1.909987,-1.902508,-1.853392,-1.793416
-1.516178,-1.517982,-1.662274,-1.780374,-1.918203,-2.064920,-2.225784,-2.448309,-2.708535,-2.480072,-2.262032,-2.116147,-1.954530,-1.825080,-1.649170,-1.501831,-1.105909,-0.703840,-0.545779,-0.377418,-0.249773,-0.112502,0.015693,0.159631,0.370759,0.479037,0.500578,0.545521,0.560120,0.584901,0.573686,0.556750,0.389106,0.373773,0.500718,0.597422,0.740846,0.868363,1.059276,1.246823,1.716437,2.060617,2.143166,2.266261,2.334484,2.433678,2.491505,2.594560,2.562084,2.338644,2.271463,2.225133,2.220143,2.220515,2.262820,2.323225,2.534883,2.548929,2.447990,2.378751,2.286731,2.200319,2.091891,1.951530,1.753160,1.931194,2.112422,2.257469,2.405218,2.556099,2.724047,2.935716,3.224252,3.139010,3.031529,2.981601,2.932070,2.910978,2.888273,2.907963,2.890372,2.662806,2.517083,2.405074,2.320238,2.256535,2.217082,2.230967,2.268865,1.906359,1.615773,1.372916,1.171304,0.983575,0.848890,0.743845,0.855497,0.676397,0.319029,0.011753,-0.341701,-0.678641,-1.072375,-1.479297,-2.122758,-2.527109,-2.733358,-2.998043,-3.226091,-3.501505,-3.762059,-4.119613,-4.500792,-4.307218,-4.107966,-4.009340,-3.873317,-3.787938,-3.621454,-3.497098,-2.979660,-2.514600,-2.416881,-2.304507,-2.249339,-2.190521,-2.141413,-2.103526,-1.941494,-1.682549,-1.602184,-1.514337,-1.472326,-1.413990,-1.385956,-1.320821,-1.352068,-1.644897,-1.791647,-1.928606,-2.002872,-2.098609,-2.098934,-2.140342,-1.685096,-1.154698,-1.151001,-1.126446,-1.216947,-1.296926,-1.444257,-1.625064,-1.804706,-1.568203,-1.501731,-1.467595,-1.513775,-1.566479,-1.698759,-1.867363,-2.240974,-2.244852,-2.146866,-2.117486,-2.073895,-2.080989,-2.051051,-2.128667,-1.848362,-0.906466,-0.500291,-0.135878,0.072240,0.288165,0.379999,0.458183,0.308709,0.522009,0.779857,1.008103,1.195536,1.384876,1.527881,1.671385,1.775005,2.017584,2.174062,2.343883,2.437444,2.559801,2.579263,2.632486,2.324953,2.063941,2.081517,2.090023,2.119260,2.143741,2.155526,2.144194,2.121140,2.409903,2.590917,2.771128,2.866458,3.000371,3.007235,3.087728,2.620359,1.951941,1.797396,1.652341,1.568315,1.486735,1.376915,1.266615,0.802173,0.504853,0.576774,0.615868,0.721032,0.833099,0.951692,1.150787,1.061611,0.320580,0.060457,-0.156809,-0.238538,-0.314416,-0.302605,-0.233465,-0.157943,-0.725020,-1.060314,-1.355957,-1.542002,-1.742832,-1.842073,-1.962776,-1.859777,-1.838111,-1.916488,-2.000420,-2.057113,-2.129784,-2.149693,-2.191965,-2.054214,-1.922765,-1.912967,-1.907409,-1.893233,-1.883921,-1.833224,-1.771118
-1.497846,-1.504718,-1.648627,-1.766421,-1.902020,-2.046876,-2.203759,-2.422533,-2.671246,-2.433723,-2.213288,-2.064105,-1.900320,-1.767945,-1.589685,-1.438660,-1.040050,-0.642510,-0.487507,-0.321097,-0.195249,-0.059299,0.067389,0.210336,0.418717,0.522595,0.541984,0.584875,0.598032,0.621248,0.609047,0.590664,0.424250,0.413783,0.542214,0.640483,0.784515,0.913171,1.104350,1.293436,1.761457,2.096793,2.174055,2.292655,2.356822,2.452070,2.505701,2.604137,2.564714,2.339791,2.272791,2.225966,2.220614,2.220554,2.262172,2.322242,2.530556,2.538228,2.435105,2.363592,2.270616,2.182946,2.074645,1.934174,1.741234,1.923555,2.103559,2.248018,2.393665,2.542981,2.707722,2.916675,3.196364,3.103029,2.992719,2.939619,2.887540,2.863671,2.837986,2.854331,2.830544,2.599641,2.453170,2.339779,2.253758,2.188594,2.147067,2.158540,2.188640,1.820979,1.530986,1.287777,1.087038,0.899726,0.765831,0.661680,0.770425,0.583489,0.225090,-0.083853,-0.436501,-0.773705,-1.165409,-1.571898,-2.209244,-2.603006,-2.802387,-3.061136,-3.282725,-3.552226,-3.805073,-4.155228,-4.520002,-4.313008,-4.108588,-4.003711,-3.862886,-3.771760,-3.600281,-3.469081,-2.946834,-2.487998,-2.393063,-2.282079,-2.227381,-2.168563,-2.118779,-2.079486,-1.914942,-1.658579,-1.580595,-1.494468,-1.454026,-1.397129,-1.370753,-1.307633,-1.343735,-1.636540,-1.780036,-1.914438,-1.985016,-2.077010,-2.072502,-2.107486,-1.645378,-1.124283,-1.125791,-1.105081,-1.197252,-1.278927,-1.425579,-1.605663,-1.777848,-1.539123,-1.474106,-1.440921,-1.487558,-1.540888,-1.672331,-1.840745,-2.207604,-2.202381,-2.100859,-2.067815,-2.020646,-2.023746,-1.988349,-2.058752,-1.763130,-0.822842,-0.423744,-0.063903,0.139171,0.350768,0.438709,0.513008,0.364700,0.581636,0.837040,1.063271,1.247357,1.433782,1.573304,1.713719,1.815257,2.054718,2.206106,2.371166,2.459316,2.576191,2.589781,2.636081,2.322694,2.065441,2.083532,2.091664,2.119684,2.142823,2.153175,2.140563,2.119527,2.407536,2.583278,2.758744,2.847759,2.975232,2.974152,3.044883,2.565484,1.902433,1.751301,1.607573,1.523734,1.441547,1.330432,1.217369,0.752539,0.465155,0.540393,0.582067,0.686886,0.798577,0.913528,1.107847,1.004494,0.264790,0.010432,-0.203048,-0.281631,-0.354871,-0.342250,-0.272916,-0.206017,-0.774928,-1.104592,-1.396005,-1.576626,-1.772514,-1.866352,-1.981413,-1.873757,-1.852157,-1.928213,-2.009514,-2.062889,-2.132139,-2.148230,-2.186149,-2.044184,-1.913181,-1.902564,-1.895633,-1.879791,-1.868531,-1.816063,-1.751582
-1.477938,-1.489065,-1.632224,-1.749411,-1.882726,-2.025583,-2.178642,-2.393603,-2.631864,-2.387402,-2.165601,-2.014077,-1.848948,-1.714499,-1.534784,-1.381098,-0.981402,-0.588862,-0.436899,-0.272628,-0.148670,-0.014237,0.110804,0.252490,0.457936,0.557795,0.575309,0.616343,0.628244,0.650070,0.637074,0.617525,0.452641,0.446310,0.575615,0.674913,0.819031,0.948265,1.139103,1.328927,1.794215,2.121094,2.193666,2.308123,2.368677,2.460314,2.510246,2.604494,2.559327,2.333820,2.267170,2.220067,2.214426,2.214001,2.254916,2.314525,2.519399,2.521672,2.417011,2.343792,2.250286,2.161816,2.053942,1.913795,1.726008,1.911404,2.089843,2.233376,2.376820,2.524372,2.685918,2.891961,3.163355,3.063470,2.951100,2.895483,2.841407,2.815267,2.787144,2.800618,2.771674,2.538642,2.391972,2.277752,2.190986,2.124784,2.081630,2.091033,2.114466,1.743545,1.454914,1.212128,1.012723,0.826317,0.693486,0.590397,0.696368,0.503375,0.145170,-0.164265,-0.515186,-0.851614,-1.240443,-1.645361,-2.275658,-2.659317,-2.852312,-3.105287,-3.320769,-3.584482,-3.830077,-4.172951,-4.522803,-4.305102,-4.096928,-3.987088,-3.842630,-3.746925,-3.571740,-3.435156,-2.910399,-2.458176,-2.365870,-2.256389,-2.202250,-2.143605,-2.093400,-2.053038,-1.886862,-1.633436,-1.557694,-1.473273,-1.434274,-1.378760,-1.353861,-1.292629,-1.332719,-1.624636,-1.764961,-1.896807,-1.964065,-2.052628,-2.044055,-2.073517,-1.606990,-1.095289,-1.101183,-1.083778,-1.177085,-1.259949,-1.405593,-1.584533,-1.749915,-1.510024,-1.446427,-1.414143,-1.461027,-1.514728,-1.645074,-1.812829,-2.172903,-2.160018,-2.055814,-2.019775,-1.969729,-1.969450,-1.929553,-1.993660,-1.685993,-0.749852,-0.357906,-0.002991,0.195225,0.402543,0.486939,0.557740,0.410857,0.630216,0.882801,1.106661,1.287378,1.470791,1.606959,1.744352,1.843832,2.079953,2.226598,2.387151,2.470474,2.582377,2.590974,2.631295,2.313900,2.060581,2.079052,2.086846,2.113755,2.135694,2.144805,2.131150,2.111880,2.398398,2.569173,2.740114,2.823538,2.945199,2.937420,2.999705,2.511580,1.855022,1.707218,1.565036,1.481603,1.399149,1.287269,1.172212,0.708432,0.430283,0.508097,0.551823,0.656041,0.767083,0.878621,1.068334,0.953326,0.216937,-0.031804,-0.241455,-0.317153,-0.387950,-0.374681,-0.305390,-0.245964,-0.814736,-1.138672,-1.425652,-1.601161,-1.792299,-1.881300,-1.991261,-1.879994,-1.858515,-1.932386,-2.011226,-2.061643,-2.127802,-2.140625,-2.174758,-2.029659,-1.899422,-1.888144,-1.880075,-1.862875,-1.850006,-1.796199,-1.729906
-1.457770,-1.473536,-1.616023,-1.732668,-1.863632,-2.004458,-2.153513,-2.364542,-2.591677,-2.339425,-2.115915,-1.961695,-1.794939,-1.658100,-1.476623,-1.319888,-0.918610,-0.531114,-0.382305,-0.220195,-0.098168,0.034749,0.158126,0.298582,0.501042,0.596630,0.612123,0.651179,0.661726,0.682064,0.668190,0.647352,0.483967,0.482129,0.612512,0.713030,0.857385,0.987378,1.178035,1.368852,1.831634,2.149646,2.217191,2.327257,2.383943,2.471745,2.517705,2.607493,2.556034,2.329665,2.263330,2.215877,2.209917,2.209095,2.249286,2.308453,2.509793,2.506196,2.399759,2.324612,2.230434,2.141005,2.033489,1.893552,1.711180,1.900107,2.077022,2.219694,2.360884,2.506666,2.664901,2.867986,3.130631,3.023524,2.908801,2.850390,2.794089,2.765454,2.734651,2.745017,2.710436,2.474854,2.327823,2.212586,2.124924,2.057526,2.012559,2.019722,2.035927,1.661091,1.373650,1.131082,0.932926,0.747319,0.615511,0.513476,0.616535,0.416762,0.058409,-0.251870,-0.601266,-0.937186,-1.323279,-1.726896,-2.350158,-2.723217,-2.909461,-3.156410,-3.365468,-3.623150,-3.861106,-4.196406,-4.530382,-4.300820,-4.088356,-3.973008,-3.824454,-3.723674,-3.544284,-3.401708,-2.873697,-2.428211,-2.338672,-2.230715,-2.177129,-2.118615,-2.067901,-2.026335,-1.858218,-1.607733,-1.534352,-1.451701,-1.414233,-1.360168,-1.336850,-1.277610,-1.322077,-1.613320,-1.750337,-1.879537,-1.943251,-2.028171,-2.015170,-2.038656,-1.566857,-1.064858,-1.075527,-1.061700,-1.156335,-1.240576,-1.385269,-1.563145,-1.721294,-1.479895,-1.417779,-1.386442,-1.433642,-1.487799,-1.617084,-1.784290,-2.137347,-2.116117,-2.008891,-1.969561,-1.916335,-1.912381,-1.867551,-1.924877,-1.603803,-0.671232,-0.286672,0.063243,0.256375,0.459248,0.539874,0.606941,0.461460,0.683675,0.933447,1.154954,1.332187,1.512509,1.645167,1.779411,1.876754,2.109478,2.251113,2.406927,2.485084,2.591693,2.594868,2.628729,2.306655,2.057361,2.076265,2.083698,2.109427,2.130083,2.137854,2.123052,2.105681,2.390866,2.556409,2.722602,2.800029,2.915494,2.900422,2.953585,2.455480,1.805327,1.660992,1.520350,1.437275,1.354446,1.241625,1.124282,0.661180,0.392794,0.473486,0.519490,0.623158,0.733604,0.841543,1.026438,0.898641,0.165117,-0.077764,-0.283463,-0.356097,-0.424309,-0.410324,-0.341009,-0.289650,-0.858841,-1.176872,-1.459319,-1.629446,-1.815610,-1.899441,-2.003965,-1.888661,-1.867291,-1.938861,-2.015103,-2.062355,-2.125218,-2.134501,-2.164552,-2.015899,-1.886363,-1.874357,-1.865043,-1.846348,-1.831716,-1.776398,-1.708068
-1.433259,-1.451476,-1.592295,-1.707576,-1.836038,-1.974449,-2.119912,-2.326827,-2.545676,-2.291355,-2.068918,-1.914589,-1.748436,-1.611502,-1.430687,-1.273669,-0.875148,-0.493991,-0.348296,-0.188866,-0.069027,0.061836,0.183162,0.321656,0.520608,0.612940,0.627162,0.664756,0.674451,0.693771,0.679531,0.658163,0.497099,0.497790,0.627594,0.727881,0.871059,1.000296,1.189122,1.378763,1.835943,2.146109,2.210228,2.316839,2.370848,2.455707,2.499028,2.585506,2.530995,2.306199,2.240642,2.193423,2.187338,2.186301,2.225723,2.284107,2.481641,2.474794,2.368329,2.292785,2.199086,2.109933,2.003592,1.865044,1.687356,1.876544,2.051001,2.191896,2.330543,2.474012,2.628958,2.828546,3.083914,2.973738,2.858741,2.799297,2.742262,2.712490,2.680468,2.689001,2.651581,2.416711,2.270811,2.156052,2.068684,2.001229,1.955655,1.961501,1.973516,1.599891,1.315725,1.075479,0.879821,0.696345,0.566306,0.465786,0.566282,0.364529,0.009344,-0.298590,-0.643962,-0.976549,-1.357608,-1.756833,-2.370504,-2.734248,-2.915025,-3.156362,-3.359929,-3.611899,-3.843422,-4.171443,-4.493506,-4.259392,-4.046457,-3.929074,-3.779578,-3.676874,-3.496759,-3.352126,-2.827085,-2.389411,-2.302233,-2.196108,-2.143318,-2.085408,-2.034869,-1.993007,-1.825331,-1.578764,-1.507370,-1.426459,-1.390188,-1.337423,-1.315201,-1.257613,-1.304124,-1.592348,-1.726271,-1.852818,-1.913972,-1.996084,-1.980723,-2.000654,-1.530186,-1.038172,-1.051414,-1.039714,-1.134233,-1.218479,-1.361328,-1.536994,-1.689663,-1.449611,-1.388886,-1.358363,-1.405312,-1.459233,-1.586751,-1.752132,-2.098060,-2.072354,-1.964411,-1.923597,-1.869075,-1.863101,-1.815918,-1.868931,-1.543272,-0.621161,-0.244222,0.099721,0.288255,0.486801,0.564586,0.628956,0.485579,0.707375,0.953306,1.171486,1.345163,1.522119,1.651610,1.782874,1.878137,2.106850,2.244396,2.396145,2.470704,2.573384,2.573497,2.603436,2.281669,2.036889,2.055862,2.063026,2.087861,2.107612,2.114563,2.099253,2.083104,2.364954,2.526069,2.688096,2.761467,2.872417,2.853403,2.900980,2.401814,1.761143,1.620059,1.481554,1.399434,1.317148,1.204823,1.087267,0.628747,0.368258,0.449828,0.496687,0.599107,0.708219,0.813164,0.993687,0.859895,0.134632,-0.102768,-0.304389,-0.374651,-0.440797,-0.426538,-0.357840,-0.311458,-0.875718,-1.187561,-1.464909,-1.630480,-1.812172,-1.892351,-1.992885,-1.876369,-1.855254,-1.924887,-1.998984,-2.044037,-2.104486,-2.111703,-2.139198,-1.989907,-1.861938,-1.849633,-1.839707,-1.820346,-1.804861,-1.749200,-1.680351
-1.431781,-1.451008,-1.591957,-1.707346,-1.835561,-1.973812,-2.118714,-2.325201,-2.542133,-2.285684,-2.062460,-1.907267,-1.740452,-1.602752,-1.421218,-1.263257,-0.863636,-0.482805,-0.337492,-0.178210,-0.058545,0.072251,0.193461,0.331963,0.530671,0.622283,0.636108,0.673358,0.682787,0.701831,0.687380,0.665700,0.504641,0.506277,0.636558,0.737294,0.880798,1.010443,1.199595,1.389810,1.847345,2.156244,2.219430,2.325323,2.378623,2.462840,2.505410,2.591116,2.535178,2.309767,2.244150,2.196767,2.190603,2.189481,2.228827,2.287230,2.484402,2.476308,2.369265,2.293170,2.199149,2.109623,2.003152,1.864381,1.687490,1.877784,2.052256,2.193242,2.331683,2.475055,2.629604,2.828954,3.082976,2.971070,2.855357,2.795211,2.737599,2.707245,2.674597,2.682494,2.643817,2.407959,2.261702,2.146508,2.058783,1.990947,1.944905,1.950290,1.960810,1.585642,1.301179,1.060516,0.864744,0.681082,0.551008,0.450515,0.550593,0.347027,-0.008873,-0.317578,-0.663295,-0.996416,-1.377633,-1.777354,-2.390729,-2.752945,-2.932651,-3.173187,-3.375795,-3.626984,-3.857346,-4.184407,-4.503754,-4.266696,-4.052449,-3.933683,-3.783038,-3.679069,-3.497723,-3.351552,-2.824817,-2.387716,-2.300950,-2.194942,-2.142166,-2.084172,-2.033429,-1.991234,-1.822826,-1.576403,-1.505367,-1.424673,-1.388653,-1.336091,-1.314159,-1.256878,-1.304399,-1.593036,-1.726522,-1.852757,-1.913283,-1.994788,-1.978467,-1.997180,-1.524698,-1.033775,-1.048047,-1.037076,-1.132057,-1.216754,-1.359678,-1.535459,-1.686902,-1.446070,-1.385540,-1.355157,-1.402263,-1.456383,-1.583924,-1.749508,-2.094628,-2.067118,-1.958332,-1.916748,-1.861453,-1.854695,-1.806384,-1.858074,-1.528969,-0.605833,-0.229720,0.113834,0.301663,0.499657,0.576799,0.640509,0.497151,0.719973,0.965787,1.183893,1.357172,1.533819,1.662821,1.793677,1.888674,2.117114,2.253872,2.404917,2.478533,2.580298,2.579272,2.607911,2.284541,2.040135,2.059236,2.066338,2.090973,2.110492,2.117175,2.101594,2.085813,2.367926,2.528251,2.689593,2.761845,2.871706,2.851122,2.896874,2.394649,1.754090,1.613464,1.475016,1.392812,1.310289,1.197550,1.079288,0.620026,0.361088,0.443420,0.490848,0.593350,0.702547,0.806937,0.986795,0.850057,0.123999,-0.112626,-0.313804,-0.383558,-0.449288,-0.434851,-0.366015,-0.321240,-0.886675,-1.197877,-1.474806,-1.639566,-1.820562,-1.899808,-1.999393,-1.881805,-1.860672,-1.929955,-2.003649,-2.048123,-2.107996,-2.114483,-2.141173,-1.990848,-1.862780,-1.850298,-1.840091,-1.820378,-1.804493,-1.748408,-1.678998
-1.430889,-1.453181,-1.594865,-1.710861,-1.838655,-1.976768,-2.120349,-2.326066,-2.537806,-2.274371,-2.048245,-1.890089,-1.720886,-1.580558,-1.396430,-1.235263,-0.831373,-0.450577,-0.306049,-0.146814,-0.027378,0.103542,0.224703,0.363571,0.562038,0.651725,0.664397,0.700714,0.709371,0.727639,0.712518,0.689854,0.528412,0.532877,0.664902,0.767229,0.912060,1.043244,1.233834,1.426232,1.885950,2.191827,2.252381,2.356391,2.407705,2.490209,2.530639,2.614253,2.553914,2.326114,2.260156,2.212164,2.205750,2.204369,2.243584,2.302190,2.498765,2.486926,2.377892,2.299963,2.204751,2.113889,2.006769,1.866992,1.692043,1.886110,2.061059,2.202661,2.340826,2.484266,2.638007,2.837139,3.087762,2.970412,2.852276,2.789885,2.730406,2.698239,2.663645,2.669658,2.627132,2.387741,2.240057,2.123281,2.034275,1.965132,1.917577,1.921602,1.927679,1.546979,1.260929,1.018428,0.821832,0.637165,0.506665,0.406007,0.505081,0.295597,-0.063316,-0.375083,-0.722681,-1.058216,-1.440846,-1.843031,-2.457030,-2.815574,-2.992525,-3.231257,-3.431502,-3.680973,-3.908438,-4.233436,-4.545454,-4.299017,-4.080324,-3.957132,-3.802684,-3.694683,-3.509213,-3.358088,-2.824992,-2.388527,-2.302784,-2.196861,-2.143999,-2.085611,-2.034132,-1.990837,-1.819831,-1.573229,-1.503090,-1.422843,-1.387487,-1.335401,-1.314281,-1.257777,-1.308431,-1.599015,-1.731523,-1.857134,-1.915937,-1.995828,-1.976598,-1.991720,-1.512057,-1.023187,-1.040568,-1.031749,-1.128341,-1.214596,-1.358097,-1.534652,-1.682806,-1.439053,-1.378954,-1.348916,-1.396606,-1.451456,-1.579379,-1.745977,-2.089531,-2.056566,-1.944994,-1.901006,-1.843265,-1.834148,-1.782350,-1.830214,-1.490008,-0.561535,-0.186965,0.156275,0.342459,0.539291,0.614704,0.676597,0.532941,0.759381,1.005449,1.223869,1.396387,1.572546,1.700407,1.830363,1.924800,2.152986,2.287726,2.437040,2.508024,2.607306,2.602873,2.627698,2.298744,2.054855,2.074384,2.081318,2.105415,2.124291,2.130189,2.113761,2.099041,2.382633,2.540995,2.700685,2.769771,2.876650,2.851328,2.891739,2.379140,1.737339,1.597733,1.459114,1.376460,1.293025,1.178771,1.058106,0.595501,0.340557,0.425369,0.474613,0.577611,0.687331,0.790322,0.968636,0.822762,0.092543,-0.142352,-0.342703,-0.411110,-0.475759,-0.460754,-0.391340,-0.351252,-0.921589,-1.231644,-1.508005,-1.670743,-1.850106,-1.926763,-2.023758,-1.902675,-1.881437,-1.949846,-2.022518,-2.065373,-2.123672,-2.127993,-2.152344,-1.998558,-1.869879,-1.856838,-1.845767,-1.824956,-1.807835,-1.750344,-1.679088
-1.429188,-1.454527,-1.596865,-1.713401,-1.840702,-1.978598,-2.120779,-2.325611,-2.532047,-2.261787,-2.032892,-1.871867,-1.700376,-1.557504,-1.370891,-1.206615,-0.798690,-0.418147,-0.274483,-0.115386,0.003754,0.134723,0.255766,0.394921,0.593035,0.680750,0.692264,0.727627,0.735510,0.752991,0.737212,0.713577,0.551845,0.559131,0.692824,0.796681,0.942753,1.075400,1.267319,1.461786,1.923424,2.226110,2.284002,2.386073,2.435374,2.516122,2.554393,2.635871,2.571172,2.341115,2.274854,2.226282,2.219621,2.217984,2.257046,2.315821,2.511688,2.496117,2.385156,2.305443,2.209094,2.116950,2.009242,1.868540,1.695629,1.893354,2.068680,2.210817,2.348627,2.492053,2.644901,2.843703,3.090791,2.968072,2.847583,2.782987,2.721678,2.687719,2.651200,2.655331,2.608985,2.366203,2.217178,2.098889,2.008653,1.938246,1.889206,1.891872,1.893510,1.507503,1.220029,0.975831,0.778525,0.592958,0.462107,0.361341,0.459358,0.244083,-0.117635,-0.432282,-0.781559,-1.119316,-1.503139,-1.907555,-2.521830,-2.876506,-3.050605,-3.287402,-3.485173,-3.732787,-3.957231,-4.279985,-4.584509,-4.328850,-4.105841,-3.978300,-3.820144,-3.708177,-3.518696,-3.362711,-2.823566,-2.387983,-2.303309,-2.197531,-2.144613,-2.085865,-2.033681,-1.989312,-1.815809,-1.569168,-1.499965,-1.420210,-1.385536,-1.333956,-1.313657,-1.257962,-1.311715,-1.604077,-1.735534,-1.860452,-1.917500,-1.995734,-1.973611,-1.985139,-1.498579,-1.012035,-1.032511,-1.025846,-1.123992,-1.211753,-1.355748,-1.532978,-1.677763,-1.431233,-1.371598,-1.341920,-1.390167,-1.445715,-1.573945,-1.741462,-2.083258,-2.044865,-1.930575,-1.884212,-1.824061,-1.812595,-1.757344,-1.801362,-1.450265,-0.516991,-0.144173,0.198558,0.382994,0.578555,0.652199,0.712242,0.568370,0.798293,1.044476,1.263086,1.434747,1.610318,1.736968,1.865952,1.959776,2.187579,2.320228,2.467729,2.536044,2.632791,2.624961,2.645964,2.311622,2.068387,2.088332,2.095094,2.118641,2.136863,2.141974,2.124710,2.111058,2.395966,2.552278,2.710228,2.776116,2.879957,2.849917,2.884973,2.362307,1.719630,1.581122,1.442410,1.359354,1.275057,1.159354,1.036360,0.570679,0.319867,0.407106,0.458135,0.561570,0.671750,0.773286,0.949958,0.795045,0.061086,-0.171948,-0.371361,-0.438384,-0.501917,-0.486354,-0.416401,-0.381016,-0.955923,-1.264657,-1.540294,-1.700921,-1.878554,-1.952582,-2.046936,-1.922432,-1.901102,-1.968600,-2.040209,-2.081424,-2.138118,-2.140275,-2.162276,-2.005124,-1.875907,-1.862315,-1.850388,-1.828492,-1.810148,-1.751285,-1.678226
-1.427556,-1.456447,-1.599581,-1.716773,-1.843533,-1.981210,-2.121797,-2.325649,-2.525962,-2.247692,-2.015518,-1.851115,-1.676919,-1.531051,-1.341501,-1.173566,-0.760847,-0.380504,-0.237812,-0.078837,0.039988,0.171047,0.291982,0.431505,0.629256,0.714697,0.724865,0.759127,0.766111,0.782682,0.766131,0.741361,0.579253,0.589824,0.725490,0.831152,0.978706,1.113086,1.306598,1.503522,1.967507,2.266552,2.321360,2.421200,2.468171,2.546894,2.582661,2.661673,2.591883,2.359145,2.292515,2.243256,2.236306,2.234370,2.273264,2.332249,2.527340,2.507423,2.394192,2.312381,2.214687,2.121028,2.012610,1.870797,1.700216,1.902246,2.078053,2.220848,2.358279,2.501723,2.653569,2.852034,3.095069,2.966072,2.842815,2.775636,2.712183,2.676129,2.637362,2.639301,2.588500,2.341711,2.191090,2.071010,1.979322,1.907426,1.856647,1.857731,1.854202,1.461925,1.172725,0.926491,0.728310,0.541651,0.410359,0.309444,0.406254,0.184187,-0.180883,-0.498958,-0.850277,-1.190700,-1.576006,-1.983118,-2.597863,-2.948122,-3.118944,-3.353547,-3.548488,-3.794001,-4.014982,-4.335204,-4.631081,-4.364624,-4.136539,-4.003906,-3.841395,-3.724785,-3.530590,-3.368910,-2.822593,-2.387932,-2.304481,-2.198847,-2.145850,-2.086668,-2.033651,-1.988021,-1.811571,-1.564825,-1.496693,-1.417491,-1.383604,-1.332598,-1.313251,-1.258484,-1.315857,-1.610359,-1.740624,-1.864767,-1.919786,-1.996112,-1.970615,-1.977964,-1.483258,-0.999303,-1.023386,-1.019225,-1.119204,-1.208739,-1.353345,-1.531402,-1.672302,-1.422478,-1.363370,-1.334105,-1.383011,-1.439384,-1.568005,-1.736631,-2.076465,-2.031745,-1.914264,-1.865125,-1.802155,-1.787952,-1.728669,-1.768221,-1.404364,-0.465274,-0.094405,0.247818,0.430264,0.624394,0.695996,0.753902,0.609744,0.843777,1.090152,1.309037,1.479742,1.654673,1.779943,1.907827,2.000961,2.228374,2.358621,2.504049,2.569274,2.663094,2.651307,2.667868,2.327172,2.084639,2.105073,2.111637,2.134550,2.152015,2.156212,2.137970,2.125558,2.412066,2.566031,2.721995,2.784175,2.884505,2.848969,2.877801,2.343292,1.699438,1.562174,1.423321,1.339776,1.254455,1.137038,1.011302,0.541929,0.295865,0.385950,0.439068,0.543038,0.653780,0.753647,0.928450,0.762980,0.024489,-0.206436,-0.404805,-0.470235,-0.532484,-0.516268,-0.445670,-0.415750,-0.996116,-1.303388,-1.578249,-1.736460,-1.912121,-1.983107,-2.074410,-1.945895,-1.924452,-1.990906,-2.061296,-2.100611,-2.155452,-2.155090,-2.174363,-2.013253,-1.883380,-1.869143,-1.856216,-1.833052,-1.813280,-1.752806,-1.677632
-1.427409,-1.459622,-1.603631,-1.721544,-1.847922,-1.985528,-2.124771,-2.327910,-2.522736,-2.236772,-2.001336,-1.833643,-1.656772,-1.507987,-1.315531,-1.144042,-0.726482,-0.345962,-0.204033,-0.045019,0.073628,0.204894,0.325845,0.465843,0.663447,0.746861,0.755791,0.789065,0.795221,0.810964,0.793683,0.767836,0.605223,0.618850,0.756476,0.863914,1.012983,1.149100,1.344274,1.543664,2.010269,2.306225,2.358225,2.456091,2.500946,2.577868,2.611347,2.688148,2.613571,2.378122,2.311086,2.261144,2.253919,2.251703,2.290479,2.349716,2.544274,2.520306,2.404864,2.321028,2.221993,2.126841,2.017659,1.874680,1.706098,1.912313,2.088734,2.232275,2.369487,2.513085,2.664146,2.862490,3.101999,2.967055,2.841114,2.771477,2.705973,2.667944,2.627054,2.626964,2.571981,2.321241,2.168995,2.047140,1.954018,1.880672,1.828231,1.827849,1.819526,1.421059,1.129981,0.881624,0.682442,0.494591,0.362766,0.261615,0.357398,0.128821,-0.239708,-0.561267,-0.914814,-1.258036,-1.645086,-2.055088,-2.670857,-3.017356,-3.185303,-3.418095,-3.610598,-3.854398,-4.072380,-4.390559,-4.678700,-4.401977,-4.168965,-4.031483,-3.864778,-3.743752,-3.544998,-3.377883,-2.824394,-2.390170,-2.307774,-2.202171,-2.149051,-2.089411,-2.035570,-1.988728,-1.809374,-1.562294,-1.495091,-1.416327,-1.383136,-1.332615,-1.314131,-1.260172,-1.320957,-1.617726,-1.747011,-1.870553,-1.923744,-1.998372,-1.969724,-1.973203,-1.470470,-0.988453,-1.015903,-1.014061,-1.115836,-1.207100,-1.352412,-1.531406,-1.668839,-1.415722,-1.357045,-1.328134,-1.377699,-1.434892,-1.563997,-1.733813,-2.072153,-2.021523,-1.900970,-1.849210,-1.783566,-1.766811,-1.703732,-1.739181,-1.363142,-0.417760,-0.048343,0.293735,0.474511,0.667500,0.737277,0.793256,0.648695,0.886763,1.133553,1.352902,1.522883,1.697387,1.821499,1.948485,2.041068,2.268337,2.396482,2.540125,2.602548,2.693744,2.678276,2.690733,2.343820,2.101706,2.122612,2.129000,2.151345,2.168126,2.171479,2.152313,2.141039,2.429305,2.581241,2.735512,2.794314,2.891485,2.850817,2.873905,2.327901,1.682340,1.546099,1.406982,1.322904,1.236550,1.117432,0.989034,0.515786,0.273889,0.366700,0.421807,0.526372,0.637742,0.736156,0.909394,0.733975,-0.009425,-0.238616,-0.436206,-0.500220,-0.561339,-0.544502,-0.473238,-0.448357,-1.034341,-1.340552,-1.614956,-1.771077,-1.945078,-2.013311,-2.101874,-1.969516,-1.947947,-2.013497,-2.082824,-2.120415,-2.173590,-2.170892,-2.187652,-2.022719,-1.892112,-1.877264,-1.863398,-1.839036,-1.817920,-1.755895,-1.678687
-1.428446,-1.464532,-1.609675,-1.728523,-1.854566,-1.992206,-2.130010,-2.332494,-2.521133,-2.226018,-1.986606,-1.814962,-1.634844,-1.482555,-1.286572,-1.110822,-0.687305,-0.306257,-0.165094,-0.005900,0.112641,0.244259,0.365331,0.505996,0.703597,0.784734,0.792239,0.824397,0.829600,0.844396,0.826254,0.799140,0.635805,0.652983,0.792994,0.902579,1.053527,1.191770,1.389034,1.591449,2.061481,2.354110,2.402904,2.498567,2.541010,2.615910,2.646769,2.721074,2.640891,2.402106,2.334543,2.283766,2.276218,2.273676,2.312347,2.371926,2.566031,2.537354,2.419251,2.333002,2.232330,2.135368,2.025211,1.880761,1.714349,1.925585,2.102866,2.247393,2.384466,2.528364,2.678645,2.877015,3.112643,2.970701,2.841545,2.769002,2.701069,2.660719,2.617338,2.614897,2.555026,2.299500,2.145243,2.021231,1.926369,1.851283,1.796873,1.794794,1.780913,1.374940,1.081443,0.830418,0.629909,0.440519,0.307964,0.206455,0.301130,0.064821,-0.308023,-0.633887,-0.990314,-1.337067,-1.726463,-2.140157,-2.757632,-3.100071,-3.264830,-3.495722,-3.685565,-3.927588,-4.142281,-4.458365,-4.737792,-4.448946,-4.210034,-4.066821,-3.895119,-3.768876,-3.564677,-3.391126,-2.828864,-2.394780,-2.313536,-2.207882,-2.154574,-2.094352,-2.039512,-1.991226,-1.808359,-1.560685,-1.494499,-1.416175,-1.383762,-1.333760,-1.316261,-1.263192,-1.327978,-1.627623,-1.755883,-1.878833,-1.929952,-2.002678,-1.970356,-1.969358,-1.456905,-0.976725,-1.008097,-1.008938,-1.112878,-1.206224,-1.352474,-1.532705,-1.666240,-1.409095,-1.350868,-1.322343,-1.372712,-1.430902,-1.560678,-1.732015,-2.068910,-2.011395,-1.887183,-1.832345,-1.763549,-1.743825,-1.676298,-1.707025,-1.316564,-0.363098,0.004950,0.347150,0.526146,0.717975,0.785698,0.839494,0.694343,0.937285,1.184764,1.404836,1.574123,1.748280,1.871154,1.997209,2.089232,2.316526,2.442345,2.584044,2.643275,2.731509,2.711767,2.719482,2.365076,2.123243,2.144715,2.150902,2.172610,2.188613,2.190991,2.170739,2.160773,2.451319,2.601034,2.753474,2.808415,2.902009,2.855366,2.871821,2.312048,1.663964,1.528792,1.389251,1.304485,1.216864,1.095675,0.964085,0.485952,0.248676,0.344721,0.402178,0.507519,0.619710,0.716526,0.888097,0.701011,-0.048701,-0.276077,-0.472933,-0.535363,-0.595225,-0.577653,-0.505560,-0.486492,-1.079476,-1.384717,-1.658824,-1.812657,-1.984883,-2.049986,-2.135449,-1.998530,-1.976798,-2.041356,-2.109510,-2.145138,-2.196428,-2.191023,-2.204888,-2.035388,-1.903822,-1.888253,-1.873288,-1.847518,-1.824829,-1.760955,-1.681326
-1.433640,-1.473065,-1.619594,-1.739581,-1.865727,-2.003813,-2.140835,-2.343387,-2.527439,-2.223801,-1.980347,-1.804889,-1.621518,-1.465846,-1.266330,-1.086496,-0.656728,-0.274085,-0.133131,0.026696,0.145507,0.277817,0.399357,0.541005,0.739202,0.818687,0.825026,0.856351,0.860776,0.874829,0.855914,0.827660,0.663228,0.683419,0.825843,0.937550,1.090523,1.230957,1.430560,1.636111,2.110426,2.401168,2.447436,2.541553,2.582113,2.655556,2.684323,2.756773,2.671673,2.429382,2.361175,2.309549,2.301708,2.298887,2.337588,2.397632,2.591948,2.559258,2.438580,2.350057,2.247715,2.148950,2.037646,1.891532,1.726425,1.942486,2.121023,2.266810,2.404183,2.548766,2.698853,2.897846,3.130953,2.982746,2.850519,2.775333,2.705169,2.662763,2.617172,2.612764,2.548637,2.288345,2.131945,2.005758,1.909158,1.832393,1.776178,1.772676,1.754120,1.340660,1.044256,0.790245,0.588022,0.396775,0.263210,0.161095,0.255132,0.011662,-0.365910,-0.696352,-1.056259,-1.407008,-1.799540,-2.217566,-2.838336,-3.178427,-3.341028,-3.571037,-3.759237,-4.000512,-4.213114,-4.528409,-4.801418,-4.501591,-4.257035,-4.108610,-3.932222,-3.801247,-3.591889,-3.412447,-2.841167,-2.405884,-2.325353,-2.219335,-2.165709,-2.104820,-2.048981,-1.999345,-1.812995,-1.564074,-1.498537,-1.420342,-1.388480,-1.338758,-1.322027,-1.269538,-1.337857,-1.640808,-1.768601,-1.891431,-1.940978,-2.012339,-1.976856,-1.972122,-1.450012,-0.969908,-1.004646,-1.007726,-1.113785,-1.209149,-1.356626,-1.538434,-1.669123,-1.407842,-1.349813,-1.321524,-1.372716,-1.431914,-1.562642,-1.735767,-2.072479,-2.009049,-1.881411,-1.823840,-1.752207,-1.729949,-1.658508,-1.685392,-1.281723,-0.318627,0.049395,0.392735,0.570787,0.762232,0.828448,0.880587,0.734505,0.982246,1.231049,1.452391,1.621613,1.796009,1.918224,2.043883,2.135719,2.363723,2.487985,2.628493,2.685241,2.771274,2.747908,2.751694,2.389967,2.147635,2.169643,2.175683,2.196925,2.212327,2.213900,2.192682,2.183776,2.477103,2.625419,2.776796,2.828684,2.919581,2.867814,2.878790,2.305839,1.653688,1.518997,1.378681,1.293084,1.204141,1.080858,0.946208,0.462552,0.228410,0.327443,0.387032,0.493340,0.606556,0.702332,0.873035,0.675655,-0.081593,-0.308146,-0.504986,-0.566284,-0.625279,-0.607042,-0.534038,-0.519760,-1.120377,-1.425734,-1.700425,-1.852817,-2.024084,-2.086776,-2.169914,-2.028777,-2.006843,-2.070770,-2.138153,-2.172252,-2.222126,-2.214447,-2.225942,-2.052120,-1.919355,-1.903139,-1.887211,-1.860190,-1.836121,-1.770512,-1.688624
-1.446661,-1.491702,-1.640969,-1.763205,-1.889914,-2.029165,-2.165329,-2.368625,-2.545705,-2.227097,-1.976235,-1.793954,-1.604658,-1.442935,-1.236981,-1.049866,-0.608472,-0.222010,-0.080961,0.080405,0.200033,0.333895,0.456584,0.600291,0.800088,0.877103,0.881544,0.911597,0.914754,0.927627,0.907382,0.877165,0.710415,0.735625,0.882463,0.998010,1.154792,1.299270,1.503347,1.714697,2.197539,2.486085,2.528342,2.620208,2.657799,2.729072,2.754488,2.824112,2.730657,2.481842,2.412364,2.359178,2.350831,2.347542,2.386413,2.447411,2.642681,2.603285,2.477994,2.385453,2.280044,2.178005,2.064466,1.915157,1.751682,1.976358,2.157516,2.305831,2.444127,2.590291,2.740525,2.941165,3.170852,3.011876,2.874182,2.794414,2.720361,2.674438,2.625071,2.617414,2.546084,2.277139,2.116725,1.986565,1.886803,1.807037,1.747675,1.741824,1.715517,1.288449,0.986337,0.726621,0.520945,0.326047,0.190402,0.086971,0.180255,-0.075759,-0.462289,-0.801292,-1.168051,-1.526466,-1.925384,-2.351843,-2.979971,-3.317262,-3.476821,-3.706093,-3.892179,-4.132976,-4.342803,-4.657784,-4.921088,-4.602257,-4.347654,-4.190190,-4.005540,-3.866373,-3.647873,-3.458180,-2.870279,-2.431664,-2.352056,-2.245108,-2.190792,-2.128614,-2.070957,-2.018945,-1.826284,-1.574533,-1.509858,-1.431632,-1.400576,-1.351161,-1.335640,-1.283944,-1.358288,-1.667623,-1.795049,-1.918064,-1.965179,-2.034517,-1.993722,-1.982828,-1.443201,-0.961721,-1.002104,-1.008878,-1.118756,-1.217738,-1.367692,-1.552664,-1.679079,-1.410176,-1.352292,-1.324303,-1.377008,-1.438049,-1.570752,-1.747360,-2.084821,-2.011462,-1.877788,-1.815541,-1.739019,-1.712520,-1.634418,-1.655064,-1.228405,-0.246459,0.122670,0.468956,0.646014,0.837424,0.901367,0.950942,0.802872,1.059283,1.311042,1.535163,1.704806,1.880140,2.001652,2.127054,2.218867,2.448752,2.570839,2.709826,2.762668,2.845347,2.815947,2.813280,2.438380,2.194470,2.217429,2.223244,2.243787,2.258249,2.258502,2.235627,2.228438,2.527256,2.673736,2.823836,2.870863,2.957605,2.897247,2.899244,2.302825,1.641946,1.507626,1.365595,1.278365,1.186968,1.059855,0.919751,0.425500,0.195781,0.300039,0.363322,0.471554,0.586808,0.681174,0.850981,0.636048,-0.135962,-0.361867,-0.559296,-0.618923,-0.676676,-0.657289,-0.582558,-0.576114,-1.191165,-1.497666,-1.774176,-1.924673,-2.094899,-2.153818,-2.233391,-2.084875,-2.062540,-2.125627,-2.191952,-2.223641,-2.271343,-2.259900,-2.267529,-2.086056,-1.950904,-1.933572,-1.916011,-1.886847,-1.860431,-1.791763,-1.705902
-1.436075,-1.489213,-1.639642,-1.762841,-1.887689,-2.025777,-2.157575,-2.357628,-2.519560,-2.183711,-1.926356,-1.737028,-1.542293,-1.374321,-1.162462,-0.967664,-0.517125,-0.132941,0.005176,0.165502,0.283834,0.417278,0.539141,0.683036,0.881050,0.952386,0.953660,0.980997,0.982036,0.992720,0.970766,0.938036,0.771185,0.803959,0.954725,1.073954,1.233466,1.381323,1.588170,1.804276,2.290346,2.569029,2.603875,2.690093,2.722058,2.788263,2.807705,2.871236,2.766314,2.512392,2.442375,2.387833,2.378849,2.374876,2.413171,2.474377,2.666917,2.617540,2.487529,2.390516,2.282453,2.177350,2.062681,1.911473,1.754212,1.987904,2.169339,2.318498,2.455261,2.600783,2.747970,2.946884,3.166017,2.993102,2.849581,2.764146,2.685424,2.634819,2.580425,2.567679,2.486262,2.209207,2.045809,1.912072,1.809381,1.726506,1.663354,1.653831,1.615566,1.175831,0.871096,0.607836,0.401077,0.204536,0.068496,-0.034801,0.055223,-0.215476,-0.608036,-0.953471,-1.323286,-1.686261,-2.086779,-2.517546,-3.143834,-3.469219,-3.620368,-3.843435,-4.022031,-4.256789,-4.457537,-4.765121,-5.006969,-4.664381,-4.399097,-4.230461,-4.036492,-3.887119,-3.658615,-3.456492,-2.854573,-2.420164,-2.343790,-2.237678,-2.183432,-2.120531,-2.061196,-2.006479,-1.807824,-1.557006,-1.495140,-1.418574,-1.389502,-1.341663,-1.328440,-1.279155,-1.361617,-1.674510,-1.798553,-1.919178,-1.961329,-2.025878,-1.977386,-1.956768,-1.400617,-0.927445,-0.976074,-0.988673,-1.102324,-1.204991,-1.355672,-1.541712,-1.658451,-1.383105,-1.326722,-1.299829,-1.353830,-1.416516,-1.549509,-1.727885,-2.059178,-1.971367,-1.830854,-1.762408,-1.679651,-1.646876,-1.559710,-1.569816,-1.115311,-0.124361,0.238484,0.581960,0.753537,0.940703,0.999572,1.043917,0.895871,1.160693,1.411724,1.635439,1.802052,1.975068,2.092785,2.215028,2.304797,2.532693,2.648594,2.782080,2.827450,2.902897,2.864381,2.851337,2.463334,2.222208,2.246203,2.251528,2.270490,2.283116,2.281229,2.256175,2.251919,2.553082,2.693387,2.838139,2.876276,2.954403,2.881472,2.868904,2.247579,1.587041,1.456260,1.314563,1.226598,1.133233,1.002707,0.856848,0.356273,0.138733,0.249158,0.317033,0.426007,0.542037,0.632058,0.796701,0.558084,-0.220911,-0.440826,-0.634890,-0.690511,-0.744993,-0.724168,-0.648280,-0.654646,-1.279585,-1.581233,-1.854635,-1.998775,-2.163594,-2.215124,-2.287191,-2.129989,-2.107494,-2.167844,-2.231008,-2.258107,-2.301251,-2.283971,-2.285183,-2.095304,-1.959249,-1.940491,-1.920675,-1.888682,-1.859049,-1.786936,-1.696529
-1.419923,-1.478926,-1.629392,-1.752631,-1.875358,-2.011782,-2.139514,-2.335970,-2.485456,-2.138374,-1.877525,-1.683899,-1.486119,-1.314336,-1.099174,-0.899625,-0.444661,-0.064377,0.070730,0.229361,0.346038,0.478412,0.598960,0.742186,0.937727,1.004338,1.003194,1.028309,1.027729,1.036686,1.013555,0.979096,0.813108,0.851458,1.004364,1.125725,1.286417,1.436013,1.643803,1.862312,2.348101,2.617704,2.646711,2.728143,2.755645,2.817619,2.832402,2.890936,2.777875,2.521494,2.451463,2.396194,2.386776,2.382304,2.419946,2.480965,2.670343,2.613645,2.480772,2.380900,2.271425,2.164582,2.049698,1.897896,1.746253,1.985493,2.166117,2.315078,2.449903,2.594116,2.738154,2.934633,3.144496,2.961942,2.814792,2.725526,2.643692,2.589807,2.531891,2.515344,2.426705,2.145036,1.980288,1.844581,1.740238,1.655463,1.589781,1.577516,1.530361,1.083461,0.778446,0.513971,0.307552,0.110868,-0.024707,-0.127319,-0.040285,-0.320638,-0.715578,-1.063963,-1.434021,-1.798422,-2.197902,-2.629523,-3.250880,-3.565367,-3.709262,-3.926347,-4.098233,-4.327070,-4.519775,-4.819994,-5.044143,-4.685398,-4.413477,-4.237285,-4.037313,-3.881011,-3.646178,-3.435731,-2.826529,-2.397771,-2.324289,-2.219412,-2.165526,-2.102429,-2.042150,-1.985681,-1.783583,-1.534888,-1.475508,-1.400639,-1.373240,-1.326871,-1.315473,-1.268301,-1.356478,-1.670318,-1.791087,-1.909212,-1.947346,-2.007886,-1.953807,-1.925901,-1.360302,-0.896123,-0.950755,-0.967719,-1.083601,-1.188495,-1.338880,-1.524686,-1.633400,-1.354699,-1.299778,-1.273870,-1.328553,-1.392138,-1.524604,-1.703321,-2.028050,-1.929730,-1.784804,-1.712023,-1.624986,-1.587616,-1.494040,-1.496064,-1.022920,-0.030697,0.325318,0.664719,0.831156,1.014037,1.068711,1.108824,0.961629,1.231364,1.480427,1.702572,1.865938,2.036214,2.150379,2.269528,2.357235,2.582333,2.692869,2.821416,2.860840,2.930357,2.885118,2.864246,2.468453,2.230805,2.255453,2.260376,2.278028,2.289184,2.285678,2.259107,2.257107,2.558359,2.693171,2.833035,2.864189,2.935317,2.853224,2.829637,2.192852,1.536295,1.408945,1.268301,1.180272,1.085935,0.953546,0.804127,0.301557,0.094516,0.209016,0.280003,0.388929,0.504896,0.591101,0.750884,0.495580,-0.284344,-0.498461,-0.688869,-0.741125,-0.792809,-0.771008,-0.694666,-0.710749,-1.339696,-1.635949,-1.905443,-2.043932,-2.203704,-2.249318,-2.315264,-2.152335,-2.129845,-2.187772,-2.248173,-2.271625,-2.311055,-2.289428,-2.285747,-2.090540,-1.954563,-1.934825,-1.913403,-1.879436,-1.847522,-1.773191,-1.679833
-1.409606,-1.474156,-1.625128,-1.748788,-1.869962,-2.005293,-2.129707,-2.323490,-2.462067,-2.103627,-1.838767,-1.640605,-1.439422,-1.263617,-1.044761,-0.840244,-0.379809,-0.001898,0.130881,0.288459,0.403990,0.535800,0.655524,0.798588,0.992480,1.054979,1.051621,1.074784,1.072722,1.080128,1.055849,1.019701,0.853983,0.897548,1.052891,1.176581,1.338855,1.490510,1.699813,1.921205,2.408259,2.670405,2.694166,2.771477,2.794986,2.853285,2.863856,2.918004,2.797148,2.537717,2.467453,2.411347,2.401503,2.396561,2.433723,2.494762,2.681842,2.618273,2.482368,2.379570,2.268462,2.159693,2.044253,1.891432,1.744449,1.989511,2.169959,2.319205,2.452681,2.596151,2.737761,2.932630,3.134675,2.942737,2.791810,2.698760,2.613825,2.556773,2.495457,2.475382,2.379863,2.093094,1.926594,1.788661,1.682481,1.595703,1.527503,1.512692,1.457263,1.002412,0.696186,0.429770,0.223016,0.025584,-0.109989,-0.212298,-0.127723,-0.417782,-0.816135,-1.168309,-1.539749,-1.906595,-2.306378,-2.740131,-3.358929,-3.664437,-3.802151,-4.014448,-4.180739,-4.404881,-4.590836,-4.885263,-5.093935,-4.719294,-4.440453,-4.256802,-4.050714,-3.887588,-3.646234,-3.427517,-2.809750,-2.384813,-2.313745,-2.209668,-2.155942,-2.092468,-2.031137,-1.972891,-1.767011,-1.519478,-1.462186,-1.388631,-1.362677,-1.317507,-1.307740,-1.262352,-1.356032,-1.671720,-1.789874,-1.906083,-1.940665,-1.997729,-1.938373,-1.903717,-1.327709,-0.870296,-0.930588,-0.951595,-1.069880,-1.177139,-1.327726,-1.513900,-1.615617,-1.332977,-1.279218,-1.254131,-1.309609,-1.374215,-1.506614,-1.686202,-2.005949,-1.897714,-1.748297,-1.671326,-1.580103,-1.538416,-1.438687,-1.433328,-0.941662,0.054834,0.405720,0.742460,0.904719,1.084256,1.135267,1.171636,1.024759,1.299829,1.547874,1.769279,1.930190,2.098494,2.209769,2.326464,2.412559,2.635805,2.741785,2.866218,2.900331,2.964643,2.913116,2.885023,2.480868,2.245655,2.270978,2.275547,2.292057,2.301905,2.296908,2.268866,2.268923,2.571199,2.701414,2.837248,2.862116,2.927067,2.836342,2.802607,2.149691,1.494718,1.370106,1.229983,1.141620,1.046098,0.911592,0.758449,0.252482,0.054389,0.172972,0.247028,0.356250,0.472523,0.555510,0.711351,0.439991,-0.343225,-0.552711,-0.740374,-0.789719,-0.839007,-0.816244,-0.739249,-0.764266,-1.398847,-1.691097,-1.957863,-2.091619,-2.247279,-2.287628,-2.348184,-2.179509,-2.156953,-2.212845,-2.270910,-2.291101,-2.327260,-2.301592,-2.293426,-2.092735,-1.956403,-1.935707,-1.912751,-1.876874,-1.842773,-1.766183,-1.669834
-1.398103,-1.468079,-1.619412,-1.743376,-1.862901,-1.997026,-2.118044,-2.309006,-2.436665,-2.067323,-1.798741,-1.596274,-1.391911,-1.212291,-0.989984,-0.780741,-0.315320,0.059896,0.190249,0.346641,0.460932,0.592062,0.710860,0.853632,1.045715,1.104090,1.098545,1.119757,1.116231,1.122096,1.096704,1.058919,0.893619,0.942304,1.099913,1.225792,1.389481,1.543033,1.753640,1.977678,2.465534,2.720065,2.738615,2.811779,2.831316,2.885928,2.892323,2.942085,2.813630,2.551422,2.480992,2.424110,2.413853,2.408451,2.445104,2.506107,2.690742,2.620437,2.481658,2.376060,2.263439,2.152866,2.036983,1.883295,1.741057,1.991650,2.171758,2.321149,2.453168,2.595769,2.734847,2.927944,3.122071,2.921031,2.766506,2.669800,2.581876,2.521745,2.457122,2.433577,2.331342,2.039793,1.871714,1.731707,1.623808,1.535130,1.464501,1.447187,1.383626,0.921331,0.614188,0.346100,0.139204,-0.058784,-0.194232,-0.296146,-0.214082,-0.513472,-0.914833,-1.270429,-1.642893,-2.011820,-2.411534,-2.846996,-3.462691,-3.759039,-3.890512,-4.097878,-4.258482,-4.477773,-4.656882,-4.945308,-5.138481,-4.748465,-4.463038,-4.272178,-4.060233,-3.890509,-3.642928,-3.416233,-2.790564,-2.369798,-2.301184,-2.197993,-2.144475,-2.080687,-2.018373,-1.958422,-1.748992,-1.502836,-1.447661,-1.375476,-1.350974,-1.307031,-1.298886,-1.255305,-1.354339,-1.671566,-1.787024,-1.901232,-1.932268,-1.985842,-1.921321,-1.880022,-1.294251,-0.843950,-0.909785,-0.934770,-1.055324,-1.164823,-1.315469,-1.501835,-1.596541,-1.310264,-1.257706,-1.233452,-1.289665,-1.355222,-1.487432,-1.667717,-1.982241,-1.864299,-1.710581,-1.629536,-1.534257,-1.488339,-1.382617,-1.369962,-0.860430,0.139372,0.484864,0.818661,0.976639,1.152702,1.200043,1.232676,1.086249,1.366343,1.613151,1.833621,1.991955,2.158154,2.266469,2.380627,2.465051,2.686259,2.787634,2.907884,2.936713,2.995819,2.938120,2.902911,2.490859,2.258271,2.284238,2.288453,2.303818,2.312363,2.305897,2.276425,2.278517,2.581528,2.707075,2.838798,2.857426,2.916208,2.817029,2.773291,2.105024,1.452219,1.330430,1.190952,1.102341,1.005735,0.869258,0.712575,0.203714,0.014654,0.137166,0.214188,0.323603,0.440071,0.519799,0.671598,0.384609,-0.401142,-0.605856,-0.790629,-0.837049,-0.883923,-0.860230,-0.782660,-0.816489,-1.456057,-1.744078,-2.007901,-2.136852,-2.288302,-2.323406,-2.378577,-2.204373,-2.181774,-2.235602,-2.291302,-2.308250,-2.341141,-2.311499,-2.298906,-2.092976,-1.956420,-1.934796,-1.910342,-1.872609,-1.836377,-1.757623,-1.658404
-1.390935,-1.466110,-1.618154,-1.742708,-1.861004,-1.994346,-2.112522,-2.301346,-2.419215,-2.038857,-1.766158,-1.559202,-1.351385,-1.167783,-0.941727,-0.727587,-0.256390,0.117265,0.245697,0.401380,0.514807,0.645636,0.763872,0.906729,1.097616,1.152317,1.144734,1.164191,1.159300,1.163754,1.137267,1.097873,0.932549,0.986096,1.146195,1.274415,1.439823,1.595514,1.807853,2.034899,2.524713,2.772826,2.786597,2.856104,2.872012,2.923345,2.925890,2.971713,2.835903,2.570469,2.499710,2.441968,2.431304,2.425462,2.461735,2.522857,2.705688,2.628969,2.487184,2.378731,2.264428,2.151908,2.035326,1.880452,1.742254,1.998593,2.178835,2.328733,2.459731,2.601883,2.738964,2.930901,3.118180,2.908209,2.749968,2.649635,2.558725,2.495592,2.427746,2.400930,2.292221,1.995519,1.825560,1.683284,1.573523,1.482864,1.409812,1.390136,1.318887,0.848546,0.539790,0.269485,0.061942,-0.137055,-0.272724,-0.374526,-0.294583,-0.603359,-1.008506,-1.368157,-1.742497,-2.114270,-2.514915,-2.953045,-3.567401,-3.856005,-3.982027,-4.185343,-4.341082,-4.556428,-4.729643,-5.013232,-5.192533,-4.787308,-4.495072,-4.297061,-4.079165,-3.902907,-3.648942,-3.414296,-2.779751,-2.361800,-2.295286,-2.192660,-2.139201,-2.074962,-2.011582,-1.949903,-1.736665,-1.491170,-1.437818,-1.366721,-1.343503,-1.300586,-1.293924,-1.251908,-1.356147,-1.675587,-1.788837,-1.901476,-1.929307,-1.979782,-1.910319,-1.862765,-1.266493,-0.821658,-0.892788,-0.921521,-1.044474,-1.156320,-1.307397,-1.494406,-1.582854,-1.292497,-1.240919,-1.217377,-1.274411,-1.341012,-1.473376,-1.654755,-1.965226,-1.838003,-1.679917,-1.594899,-1.495627,-1.445676,-1.334141,-1.314698,-0.787353,0.218002,0.559359,0.891262,1.045670,1.218955,1.263015,1.292270,1.145895,1.431338,1.677617,1.897770,2.054112,2.218776,2.324619,2.436714,2.519799,2.739672,2.837035,2.953712,2.977719,3.032151,2.968594,2.926708,2.506317,2.275580,2.302208,2.306107,2.320449,2.327809,2.319966,2.289098,2.293079,2.597524,2.719062,2.847307,2.860202,2.913419,2.806165,2.753053,2.068907,1.416485,1.297005,1.157778,1.068715,0.970866,0.832224,0.671871,0.159062,-0.022104,0.104351,0.184312,0.294179,0.411118,0.488026,0.636460,0.334284,-0.455772,-0.656576,-0.839136,-0.882963,-0.927717,-0.903104,-0.824808,-0.866882,-1.512661,-1.797484,-2.059239,-2.184062,-2.331991,-2.362325,-2.412647,-2.232891,-2.210193,-2.262246,-2.315895,-2.329881,-2.359828,-2.326432,-2.309708,-2.098414,-1.961310,-1.938772,-1.912871,-1.873325,-1.835031,-1.754076,-1.651953
-1.383508,-1.464386,-1.617252,-1.742486,-1.859474,-1.992000,-2.107103,-2.293648,-2.400852,-2.008347,-1.731070,-1.519148,-1.307497,-1.119491,-0.889272,-0.669718,-0.192072,0.179987,0.306357,0.461310,0.573827,0.704363,0.822021,0.965012,1.154647,1.205351,1.195538,1.213083,1.206701,1.209613,1.181922,1.140758,0.975359,1.034234,1.197102,1.327917,1.495251,1.653324,1.867618,2.098017,2.590114,2.831286,2.839840,2.905370,2.917318,2.965083,2.963421,3.004955,2.861068,2.592032,2.520892,2.462193,2.451081,2.444757,2.480625,2.541895,2.722808,2.639059,2.493947,2.382343,2.266169,2.151489,2.034109,1.877894,1.744069,2.006763,2.187203,2.337698,2.467619,2.609322,2.744260,2.934986,3.114837,2.895046,2.732698,2.628374,2.534174,2.467743,2.396356,2.365956,2.250142,1.947723,1.775660,1.630862,1.519036,1.426186,1.350464,1.328201,1.248531,0.769261,0.458653,0.185846,-0.022463,-0.222621,-0.358571,-0.460281,-0.382632,-0.701754,-1.111155,-1.475342,-1.851842,-2.226833,-2.628613,-3.069785,-3.682858,-3.963083,-4.083186,-4.282137,-4.432605,-4.643702,-4.810528,-5.088914,-5.253110,-4.831148,-4.531385,-4.325504,-4.101040,-3.917593,-3.656579,-3.413175,-2.768746,-2.353749,-2.289511,-2.187471,-2.134061,-2.069312,-2.004748,-1.941164,-1.723701,-1.478858,-1.427483,-1.357553,-1.335732,-1.293924,-1.288880,-1.248560,-1.358518,-1.680470,-1.791340,-1.902298,-1.926635,-1.973738,-1.898854,-1.844452,-1.236532,-0.797538,-0.874476,-0.907311,-1.032924,-1.147367,-1.298959,-1.486724,-1.568360,-1.273459,-1.222938,-1.200168,-1.258115,-1.325875,-1.458446,-1.641074,-1.947208,-1.809806,-1.646902,-1.557517,-1.453853,-1.399480,-1.281561,-1.254696,-0.707732,0.303983,0.640922,0.970852,1.121404,1.291704,1.332192,1.357765,1.211404,1.502776,1.748547,1.968418,2.122630,2.285664,2.388837,2.498710,2.580357,2.798834,2.891843,3.004649,3.023395,3.072736,3.002758,2.953564,2.523938,2.295157,2.322515,2.326069,2.339298,2.345365,2.336015,2.303612,2.309658,2.615761,2.732952,2.857434,2.864070,2.911222,2.795112,2.731743,2.030046,1.377851,1.260861,1.121866,1.032284,0.933047,0.791999,0.627590,0.110318,-0.062276,0.068526,0.151721,0.262112,0.379600,0.453450,0.598251,0.279392,-0.515599,-0.712190,-0.892383,-0.933390,-0.975841,-0.950216,-0.871103,-0.922198,-1.574953,-1.856364,-2.115935,-2.236285,-2.380409,-2.405541,-2.450578,-2.264702,-2.241892,-2.292018,-2.343442,-2.354197,-2.380934,-2.343428,-2.322184,-2.104968,-1.967225,-1.943683,-1.916193,-1.874654,-1.834094,-1.750712,-1.645386
-1.383853,-1.469926,-1.624215,-1.750622,-1.867065,-1.999536,-2.112598,-2.298110,-2.396833,-1.992208,-1.709746,-1.492624,-1.276727,-1.084109,-0.849279,-0.624112,-0.138744,0.233745,0.358979,0.514058,0.626344,0.757258,0.874989,1.018777,1.208262,1.255836,1.244095,1.260112,1.252441,1.254067,1.225229,1.182375,1.016124,1.079773,1.245754,1.379383,1.549139,1.709977,1.926943,2.161271,2.657643,2.894114,2.898308,2.960798,2.969462,3.014447,3.009229,3.047343,2.895957,2.622598,2.550798,2.491011,2.479468,2.472707,2.508406,2.570093,2.750252,2.660174,2.511563,2.396768,2.278461,2.161413,2.042799,1.884707,1.753931,2.023238,2.204707,2.356425,2.486059,2.628060,2.761835,2.952450,3.126895,2.897773,2.731186,2.622997,2.525572,2.456043,2.381328,2.347761,2.225401,1.916716,1.742057,1.594440,1.480339,1.385197,1.306861,1.282311,1.195157,0.706069,0.392413,0.116195,-0.093757,-0.295850,-0.432686,-0.534803,-0.458718,-0.788090,-1.203036,-1.572787,-1.952907,-2.332403,-2.737059,-3.182905,-3.797823,-4.072321,-4.188005,-4.384224,-4.530965,-4.739488,-4.901721,-5.177049,-5.329291,-4.891198,-4.583655,-4.370153,-4.139078,-3.948691,-3.680485,-3.428533,-2.772689,-2.358201,-2.295576,-2.193543,-2.139919,-2.074430,-2.008560,-1.943065,-1.721001,-1.475538,-1.425584,-1.356305,-1.335557,-1.294485,-1.290782,-1.251701,-1.367006,-1.692614,-1.802008,-1.912078,-1.933583,-1.978069,-1.898254,-1.837816,-1.217170,-0.781006,-0.863209,-0.899661,-1.028116,-1.145296,-1.298046,-1.487346,-1.563627,-1.263486,-1.213614,-1.191386,-1.250380,-1.319442,-1.452821,-1.637374,-1.941312,-1.794669,-1.626923,-1.533428,-1.425565,-1.367204,-1.243337,-1.210083,-0.643962,0.377950,0.712771,1.042615,1.190633,1.359229,1.396898,1.419488,1.272439,1.570202,1.816720,2.037403,2.190555,2.352994,2.454408,2.562931,2.643756,2.862099,2.951879,3.061960,3.076358,3.121641,3.045914,2.990322,2.550855,2.322631,2.350734,2.354014,2.366368,2.371374,2.360708,2.326856,2.334673,2.643635,2.757722,2.879624,2.881013,2.923274,2.799141,2.726819,2.006967,1.351849,1.236400,1.096937,1.006490,0.905608,0.761857,0.593242,0.069736,-0.096454,0.038638,0.124959,0.236320,0.354832,0.426455,0.568883,0.234431,-0.568518,-0.762495,-0.941553,-0.980377,-1.021089,-0.994488,-0.914308,-0.973255,-1.635012,-1.914889,-2.173859,-2.291011,-2.432614,-2.453478,-2.494273,-2.302349,-2.279334,-2.328075,-2.377868,-2.385949,-2.410108,-2.368955,-2.343799,-2.120550,-1.981610,-1.957108,-1.928147,-1.884729,-1.842065,-1.756237,-1.647706
-1.388136,-1.483332,-1.640468,-1.769219,-1.885041,-2.017771,-2.127641,-2.311882,-2.396351,-1.969903,-1.677812,-1.451209,-1.227471,-1.026446,-0.783098,-0.547720,-0.047843,0.326377,0.450003,0.605710,0.717901,0.849809,0.967981,1.113516,1.303250,1.345595,1.330523,1.343967,1.334070,1.333499,1.302621,1.256760,1.088605,1.160596,1.332348,1.471150,1.645507,1.811505,2.033623,2.275301,2.780316,3.009371,3.006114,3.063567,3.066635,3.106981,3.095662,3.128026,2.963400,2.681912,2.608791,2.546984,2.534671,2.527144,2.562648,2.625213,2.804563,2.703413,2.548418,2.427854,2.305581,2.184166,2.063123,1.901397,1.775491,2.056836,2.240552,2.394767,2.524254,2.667144,2.799286,2.990221,3.155879,2.910174,2.735888,2.620796,2.517591,2.442573,2.361962,2.322885,2.188995,1.868762,1.689193,1.536359,1.418057,1.318740,1.235721,1.207191,1.106996,0.599797,0.280090,-0.002707,-0.216028,-0.421972,-0.560691,-0.663779,-0.590167,-0.937962,-1.363503,-1.743766,-2.131095,-2.519314,-2.929974,-3.385008,-4.004726,-4.270154,-4.378584,-4.570652,-4.711406,-4.916079,-5.070886,-5.341713,-5.473901,-5.007030,-4.685352,-4.458234,-4.215228,-4.012455,-3.731223,-3.463969,-2.786839,-2.372115,-2.312083,-2.209790,-2.155657,-2.088728,-2.020446,-1.951505,-1.720972,-1.473794,-1.426140,-1.357790,-1.338823,-1.298901,-1.297482,-1.260417,-1.385182,-1.717918,-1.825075,-1.933919,-1.950636,-1.990759,-1.902295,-1.831365,-1.187279,-0.754794,-0.846229,-0.888969,-1.022631,-1.144809,-1.299949,-1.492381,-1.559699,-1.249789,-1.200895,-1.179535,-1.240479,-1.311953,-1.447072,-1.635412,-1.936403,-1.773551,-1.597072,-1.496292,-1.380954,-1.315612,-1.181234,-1.136957,-0.536536,0.505556,0.837648,1.168222,1.312299,1.478429,1.511374,1.528917,1.380299,1.689797,1.938249,2.160912,2.312658,2.474511,2.573185,2.679689,2.759321,2.978019,3.062513,3.168222,3.175217,3.213675,3.127907,3.061215,2.603733,2.375852,2.405308,2.408128,2.419017,2.422219,2.409273,2.372850,2.383718,2.698400,2.807475,2.925288,2.917700,2.951703,2.813507,2.725668,1.972824,1.310954,1.197834,1.057197,0.965028,0.861062,0.712301,0.536038,0.000463,-0.155207,-0.012412,0.079487,0.192806,0.313387,0.381391,0.520138,0.158104,-0.660609,-0.850629,-1.028222,-1.063414,-1.101258,-1.072914,-0.990696,-1.063240,-1.742168,-2.020168,-2.278799,-2.390790,-2.528457,-2.542073,-2.575717,-2.372927,-2.349502,-2.396002,-2.443137,-2.446662,-2.466472,-2.418969,-2.387048,-2.152879,-2.011519,-1.985310,-1.953753,-1.907004,-1.860623,-1.770380,-1.656075
-1.352062,-1.459064,-1.615938,-1.744490,-1.855720,-1.984757,-2.086062,-2.262539,-2.321339,-1.872805,-1.574191,-1.339275,-1.109785,-0.901389,-0.651803,-0.407203,0.100656,0.466083,0.583277,0.735176,0.843738,0.973170,1.088394,1.232245,1.416505,1.449081,1.429090,1.437955,1.424764,1.420657,1.387435,1.338133,1.172109,1.255361,1.431126,1.573993,1.750390,1.919592,2.143163,2.389241,2.892590,3.102556,3.087349,3.134876,3.128798,3.160391,3.139557,3.161617,2.980678,2.694764,2.621770,2.558609,2.545435,2.536902,2.570991,2.633039,2.805525,2.689600,2.529079,2.402921,2.278022,2.153305,2.032084,1.869490,1.755360,2.047459,2.229116,2.382593,2.507832,2.647735,2.773142,2.958678,3.104994,2.840082,2.658741,2.536049,2.426695,2.345122,2.257474,2.210696,2.062306,1.733316,1.551367,1.394830,1.273400,1.170407,1.082386,1.048302,0.930119,0.409340,0.089751,-0.194924,-0.407088,-0.612881,-0.750347,-0.851811,-0.784479,-1.151296,-1.580792,-1.966276,-2.353267,-2.743569,-3.151215,-3.607015,-4.215299,-4.457835,-4.551174,-4.730578,-4.857289,-5.049394,-5.187396,-5.442556,-5.538214,-5.039261,-4.704686,-4.462586,-4.207810,-3.991285,-3.697701,-3.413975,-2.723395,-2.321137,-2.267158,-2.167614,-2.114335,-2.047148,-1.977080,-1.904702,-1.667615,-1.425318,-1.382859,-1.318129,-1.302632,-1.265806,-1.268125,-1.235468,-1.371670,-1.705626,-1.805846,-1.909335,-1.917790,-1.949616,-1.849900,-1.764200,-1.102157,-0.689020,-0.792553,-0.844138,-0.982082,-1.108557,-1.262757,-1.454293,-1.505032,-1.188922,-1.143125,-1.123829,-1.186038,-1.259200,-1.392946,-1.581578,-1.868478,-1.684457,-1.499319,-1.389881,-1.266026,-1.191416,-1.044201,-0.983470,-0.346173,0.696276,1.013664,1.335180,1.468420,1.625416,1.649698,1.658537,1.511985,1.830874,2.074760,2.293726,2.438497,2.594389,2.685576,2.785513,2.860750,3.073247,3.146574,3.241939,3.236743,3.262972,3.163621,3.081044,2.608596,2.388330,2.419060,2.421048,2.429230,2.429417,2.413184,2.373731,2.389199,2.703381,2.800974,2.908523,2.886651,2.906246,2.749587,2.639372,1.856491,1.204203,1.098354,0.960177,0.868076,0.762343,0.610089,0.426915,-0.111588,-0.245423,-0.094593,0.003484,0.116458,0.236649,0.296693,0.425189,0.029762,-0.789086,-0.966820,-1.136543,-1.164770,-1.196803,-1.166520,-1.083550,-1.175838,-1.861506,-2.127859,-2.377930,-2.478104,-2.605142,-2.606612,-2.627648,-2.413568,-2.390203,-2.431640,-2.473014,-2.469063,-2.481226,-2.424924,-2.383052,-2.138474,-1.997581,-1.969421,-1.934644,-1.883954,-1.833000,-1.738412,-1.618309
-1.313468,-1.427806,-1.582983,-1.710157,-1.817060,-1.942236,-2.036494,-2.205769,-2.245808,-1.785942,-1.485581,-1.247035,-1.015679,-0.804067,-0.552464,-0.303685,0.204940,0.560614,0.672121,0.819858,0.924801,1.051231,1.163255,1.304528,1.483132,1.508470,1.485184,1.490719,1.475321,1.468748,1.434184,1.382917,1.220003,1.310435,1.487351,1.631723,1.807867,1.977710,2.200156,2.446982,2.944301,3.138714,3.115185,3.155217,3.142716,3.167800,3.140423,3.154968,2.964209,2.677913,2.605712,2.542200,2.528542,2.519379,2.552135,2.613219,2.779178,2.653898,2.491008,2.362100,2.236542,2.110686,1.990507,1.828865,1.724181,2.021088,2.199537,2.351012,2.472033,2.608470,2.727896,2.907818,3.039015,2.763040,2.578447,2.451550,2.338891,2.253458,2.161667,2.109881,1.952643,1.620615,1.438734,1.281078,1.158602,1.053995,0.963278,0.925585,0.795792,0.270405,-0.046023,-0.329287,-0.538587,-0.742290,-0.877543,-0.976879,-0.914648,-1.291413,-1.719575,-2.105044,-2.488067,-2.876085,-3.277670,-3.729620,-4.323940,-4.547915,-4.629658,-4.798357,-4.913894,-5.095242,-5.220001,-5.461599,-5.530443,-5.013559,-4.673066,-4.422678,-4.162015,-3.937830,-3.638317,-3.345651,-2.652190,-2.262643,-2.213474,-2.116837,-2.064676,-1.997954,-1.927297,-1.853179,-1.613731,-1.377228,-1.338861,-1.277320,-1.264431,-1.230155,-1.235101,-1.205883,-1.348878,-1.680481,-1.774819,-1.873516,-1.876034,-1.901672,-1.794943,-1.699598,-1.031206,-0.635763,-0.746873,-0.804230,-0.943880,-1.072183,-1.224230,-1.413287,-1.451786,-1.134326,-1.091165,-1.073519,-1.136026,-1.209678,-1.341163,-1.528185,-1.802333,-1.605081,-1.415589,-1.301068,-1.172370,-1.091910,-0.937015,-0.865205,-0.207911,0.824746,1.128657,1.440655,1.564930,1.713938,1.731848,1.734431,1.590755,1.913229,2.151528,2.365766,2.504198,2.654363,2.739364,2.833685,2.905082,3.111135,3.175841,3.262956,3.249170,3.266479,3.158457,3.065415,2.586912,2.374165,2.405503,2.406882,2.413067,2.411114,2.392708,2.351488,2.370066,2.680868,2.769382,2.868621,2.836835,2.846029,2.677792,2.552780,1.756150,1.116939,1.017263,0.882160,0.790996,0.685028,0.531765,0.345457,-0.189933,-0.307002,-0.151930,-0.050420,0.061222,0.179979,0.233802,0.353794,-0.061491,-0.872546,-1.039860,-1.202369,-1.225388,-1.252994,-1.221628,-1.138925,-1.244317,-1.928158,-2.183689,-2.425284,-2.516118,-2.634397,-2.627244,-2.639142,-2.419121,-2.396025,-2.433473,-2.470367,-2.461154,-2.467779,-2.405783,-2.357261,-2.107662,-1.968457,-1.939186,-1.902461,-1.849468,-1.795763,-1.699007,-1.575950
-1.283173,-1.404943,-1.559234,-1.685694,-1.789017,-1.911133,-1.999191,-2.162464,-2.185027,-1.712381,-1.408996,-1.165938,-0.931763,-0.716151,-0.461494,-0.207637,0.304043,0.652171,0.758837,0.903334,1.005354,1.129538,1.239065,1.378560,1.552661,1.571302,1.544808,1.547234,1.529686,1.520761,1.484777,1.431425,1.270690,1.368296,1.547107,1.693560,1.870274,2.041500,2.263910,2.512574,3.006501,3.187168,3.155695,3.188859,3.170252,3.189326,3.155663,3.163201,2.962323,2.674351,2.602566,2.538432,2.524255,2.514457,2.546110,2.606566,2.767144,2.632483,2.466613,2.334526,2.207771,2.080265,1.960515,1.799025,1.702752,2.005549,2.181797,2.332083,2.449691,2.583492,2.697836,2.873301,2.990868,2.703213,2.514710,2.383272,2.266984,2.177526,2.081413,2.024675,1.858386,1.521975,1.339320,1.179889,1.055865,0.949258,0.855585,0.814323,0.673004,0.140867,-0.174038,-0.457275,-0.664840,-0.867512,-1.001304,-1.099093,-1.041377,-1.429237,-1.858109,-2.245337,-2.626384,-3.014035,-3.411757,-3.862161,-4.446066,-4.653597,-4.724801,-4.884200,-4.989749,-5.161803,-5.274671,-5.504612,-5.548534,-5.012396,-4.664768,-4.405429,-4.138027,-3.905601,-3.599132,-3.296705,-2.597348,-2.217976,-2.173109,-2.078765,-2.027417,-1.960826,-1.889288,-1.813194,-1.570422,-1.338287,-1.303595,-1.244774,-1.234281,-1.202247,-1.209688,-1.183574,-1.333620,-1.664532,-1.753766,-1.848406,-1.845346,-1.865277,-1.751456,-1.646596,-0.969157,-0.588552,-0.707305,-0.770359,-0.912256,-1.042869,-1.193589,-1.381180,-1.408334,-1.088145,-1.047268,-1.031094,-1.094167,-1.168620,-1.298581,-1.484946,-1.748350,-1.537738,-1.343277,-1.223445,-1.089597,-1.003261,-0.840426,-0.757857,-0.078721,0.949465,1.242083,1.546555,1.662963,1.805137,1.817130,1.813837,1.672209,1.999538,2.233673,2.444443,2.577545,2.723009,2.802578,2.892045,2.960155,3.161091,3.217979,3.297727,3.275792,3.284784,3.168104,3.064786,2.578384,2.371738,2.403791,2.404604,2.408937,2.404962,2.384425,2.341352,2.362943,2.671991,2.752366,2.844237,2.802974,2.802419,2.622513,2.482997,1.669767,1.039928,0.945605,0.812775,0.722073,0.615399,0.460481,0.270368,-0.264551,-0.366376,-0.206599,-0.101391,0.009509,0.127462,0.175676,0.288215,-0.147670,-0.955115,-1.113389,-1.269855,-1.288077,-1.311642,-1.279112,-1.196281,-1.314492,-1.999754,-2.246272,-2.480998,-2.563458,-2.674035,-2.658734,-2.662084,-2.435461,-2.412511,-2.446377,-2.479222,-2.465014,-2.466458,-2.398817,-2.343813,-2.088341,-1.950085,-1.919633,-1.880907,-1.825501,-1.768961,-1.669719,-1.543318
-1.249841,-1.378232,-1.531134,-1.656466,-1.756020,-1.874798,-1.956655,-2.113647,-2.119539,-1.636443,-1.331266,-1.084791,-0.848773,-0.630131,-0.373481,-0.115708,0.397052,0.736775,0.838464,0.979372,1.078253,1.199862,1.306628,1.443938,1.613144,1.625361,1.595915,1.595380,1.575855,1.564729,1.527523,1.472382,1.314288,1.418357,1.598332,1.746238,1.922864,2.094795,2.316377,2.565901,3.054849,3.221821,3.182920,3.209442,3.185107,3.198406,3.158895,3.159753,2.949983,2.661446,2.590311,2.525815,2.511196,2.500829,2.531323,2.590968,2.745865,2.602776,2.434669,2.300032,2.172593,2.043974,1.925057,1.764287,1.676343,1.983653,2.157184,2.305807,2.419755,2.550577,2.659689,2.830297,2.934506,2.636785,2.445242,2.309961,2.190641,2.097680,1.997806,1.936569,1.762279,1.422903,1.240165,1.079616,0.954563,0.846438,0.750293,0.705788,0.554031,0.017378,-0.294959,-0.577162,-0.782341,-0.983311,-1.115240,-1.211212,-1.157987,-1.555000,-1.983020,-2.370538,-2.748353,-3.134274,-3.526913,-3.974244,-4.546182,-4.737363,-4.798307,-4.948307,-5.043998,-5.206615,-5.307792,-5.525847,-5.545950,-4.993442,-4.640278,-4.373363,-4.100516,-3.861093,-3.549112,-3.238495,-2.536029,-2.167670,-2.127047,-2.035216,-1.984823,-1.918593,-1.846474,-1.768773,-1.523712,-1.296550,-1.265471,-1.209441,-1.201260,-1.171469,-1.181253,-1.158178,-1.314385,-1.643462,-1.727533,-1.817983,-1.809639,-1.824081,-1.703932,-1.590411,-0.906794,-0.541633,-0.667219,-0.735458,-0.878983,-1.011323,-1.160247,-1.345778,-1.362064,-1.040425,-1.001861,-0.987142,-1.050530,-1.125477,-1.253527,-1.438605,-1.690871,-1.468324,-1.269839,-1.145392,-1.007130,-0.915522,-0.745728,-0.653240,0.044216,1.064494,1.345350,1.641593,1.750115,1.885296,1.891628,1.882769,1.743589,2.074361,2.303709,2.510436,2.638004,2.778486,2.852614,2.937155,3.001902,3.197263,3.246526,3.318996,3.289403,3.290465,3.165981,3.053274,2.561105,2.360987,2.393605,2.393878,2.396437,2.390556,2.368070,2.323391,2.347766,2.654047,2.726409,2.810959,2.760844,2.751036,2.560690,2.407901,1.581806,0.963109,0.874203,0.744005,0.654065,0.547100,0.391162,0.198114,-0.334453,-0.421443,-0.257767,-0.149424,-0.039622,0.077147,0.119865,0.224927,-0.228965,-1.030107,-1.179235,-1.329405,-1.343008,-1.362652,-1.329134,-1.246476,-1.376438,-2.060608,-2.297691,-2.525060,-2.599275,-2.702147,-2.679163,-2.674386,-2.442301,-2.419572,-2.449916,-2.478800,-2.459901,-2.456420,-2.383661,-2.322698,-2.062560,-1.925697,-1.894234,-1.853745,-1.796245,-1.737214,-1.635966,-1.506839
-1.221218,-1.356555,-1.508601,-1.633243,-1.729421,-1.845309,-1.921338,-2.072676,-2.062180,-1.567185,-1.259225,-1.008561,-0.769940,-0.547586,-0.288116,-0.025627,0.489910,0.822499,0.919630,1.057477,1.153599,1.273082,1.377488,1.513106,1.678060,1.683996,1.651548,1.648097,1.626560,1.613231,1.574699,1.517613,1.361588,1.472367,1.654088,1.803920,1.981050,2.154248,2.375758,2.626962,3.112645,3.266698,3.220356,3.240433,3.210377,3.218038,3.172641,3.166927,2.947705,2.657647,2.586914,2.521845,2.506743,2.495782,2.525236,2.584283,2.734107,2.582246,2.411375,2.273779,2.145240,2.015096,1.896601,1.736003,1.655960,1.968740,2.140177,2.287660,2.398387,2.526715,2.631044,2.797442,2.888854,2.580232,2.385055,2.245540,2.122838,2.026119,1.922210,1.856339,1.673593,1.330164,1.146734,0.984547,0.858065,0.748083,0.649183,0.601339,0.438801,-0.104089,-0.414945,-0.697073,-0.900591,-1.100559,-1.231094,-1.325599,-1.276618,-1.683965,-2.112577,-2.501677,-2.877574,-3.263084,-3.652034,-4.097837,-4.659911,-4.835640,-4.886692,-5.027944,-5.114253,-5.268129,-5.358138,-5.565224,-5.561955,-4.991489,-4.631696,-4.356434,-4.077314,-3.830206,-3.511757,-3.192041,-2.484167,-2.125412,-2.088831,-1.999165,-1.949543,-1.883448,-1.810516,-1.730974,-1.482839,-1.259812,-1.232185,-1.178715,-1.172781,-1.145098,-1.157221,-1.137059,-1.299851,-1.628223,-1.707494,-1.794124,-1.780552,-1.789640,-1.662861,-1.540437,-0.848455,-0.497271,-0.630002,-0.703571,-0.849179,-0.983662,-1.131315,-1.315439,-1.321085,-0.996943,-0.960527,-0.947190,-1.011099,-1.086784,-1.213382,-1.397812,-1.639961,-1.404924,-1.201814,-1.072409,-0.929342,-0.832240,-0.655029,-0.552470,0.165347,1.181255,1.451475,1.740609,1.841736,1.970485,1.971269,1.956901,1.819665,2.154933,2.380337,2.583777,2.706324,2.842374,2.911396,2.991371,3.053025,3.243553,3.285476,3.351027,3.313798,3.307061,3.174481,3.052156,2.552667,2.358303,2.391587,2.391328,2.392151,2.384374,2.359894,2.313485,2.340681,2.645265,2.709983,2.787610,2.728617,2.709669,2.508413,2.342052,1.500534,0.890731,0.806860,0.678816,0.589325,0.481716,0.324254,0.127671,-0.404363,-0.477044,-0.308984,-0.197192,-0.088105,0.027890,0.065342,0.163397,-0.309734,-1.107352,-1.247977,-1.392455,-1.401558,-1.417410,-1.382807,-1.300042,-1.442002,-2.127386,-2.355977,-2.576866,-2.643215,-2.738849,-2.708228,-2.695436,-2.457201,-2.434613,-2.461593,-2.486676,-2.463096,-2.454757,-2.376717,-2.309686,-2.044086,-1.908138,-1.875573,-1.833214,-1.773462,-1.711782,-1.608220,-1.475980
-1.186991,-1.329123,-1.479740,-1.603223,-1.695532,-1.807992,-1.877656,-2.022546,-1.994938,-1.489223,-1.179429,-0.925259,-0.684750,-0.459290,-0.197778,0.068728,0.585367,0.909325,1.001348,1.135508,1.228406,1.345246,1.446817,1.580190,1.740118,1.739460,1.703983,1.697493,1.673927,1.658339,1.618554,1.559632,1.406320,1.523731,1.706644,1.857965,2.035004,2.208921,2.429580,2.681663,3.162230,3.302224,3.248258,3.261519,3.225583,3.227317,3.175918,3.163349,2.935003,2.644369,2.574303,2.508863,2.493308,2.481764,2.510027,2.568240,2.712232,2.551723,2.378557,2.238347,2.109106,1.977822,1.860184,1.700327,1.628834,1.946243,2.114889,2.260662,2.367631,2.492900,2.591857,2.753268,2.830968,2.512019,2.313723,2.170265,2.044455,1.944140,1.836372,1.765885,1.574929,1.228461,1.044948,0.881616,0.754079,0.642540,0.541104,0.489933,0.316682,-0.230835,-0.539051,-0.820115,-1.021181,-1.219401,-1.348021,-1.440660,-1.396290,-1.813027,-2.240758,-2.630151,-3.002725,-3.386455,-3.770183,-4.212827,-4.762611,-4.921556,-4.962076,-5.093680,-5.169870,-5.314058,-5.392066,-5.586950,-5.559233,-4.971972,-4.606501,-4.323468,-4.038762,-3.784476,-3.460373,-3.132255,-2.421200,-2.073752,-2.041527,-1.954441,-1.905800,-1.840077,-1.766550,-1.685360,-1.434877,-1.216957,-1.193039,-1.142435,-1.138874,-1.113493,-1.128021,-1.110979,-1.280092,-1.606576,-1.680547,-1.762876,-1.743881,-1.747334,-1.614062,-1.482750,-0.784437,-0.449108,-0.588851,-0.667740,-0.815017,-0.951272,-1.097079,-1.279087,-1.273578,-0.947952,-0.913910,-0.902067,-0.966297,-1.042489,-1.167125,-1.350231,-1.580945,-1.333661,-1.126423,-0.992282,-0.844688,-0.742176,-0.557825,-0.445085,0.291525,1.299305,1.557448,1.838133,1.931166,2.052734,2.047708,2.027627,1.892905,2.231703,2.452191,2.651479,2.768344,2.899280,2.962716,3.037634,3.095835,3.280639,3.314735,3.372816,3.327726,3.312852,3.172262,3.040302,2.534900,2.347239,2.381103,2.380289,2.379291,2.369558,2.343077,2.295021,2.325074,2.626815,2.683307,2.753418,2.685341,2.656896,2.444927,2.264945,1.410233,0.811874,0.733565,0.608223,0.519515,0.411608,0.253102,0.053508,-0.476105,-0.533558,-0.361499,-0.246490,-0.138532,-0.023752,0.008057,0.098436,-0.393170,-1.184309,-1.315545,-1.453560,-1.457921,-1.469749,-1.434132,-1.351545,-1.505563,-2.189819,-2.408723,-2.622058,-2.679944,-2.767668,-2.729162,-2.708029,-2.464191,-2.441830,-2.465195,-2.486212,-2.457818,-2.444423,-2.361131,-2.287985,-2.017600,-1.883083,-1.849479,-1.805312,-1.743412,-1.679176,-1.573557,-1.438521
-1.157070,-1.306708,-1.456496,-1.579311,-1.668065,-1.777500,-1.840974,-1.979901,-1.934759,-1.416034,-1.103088,-0.844296,-0.600867,-0.371309,-0.106633,0.165066,0.684969,1.001485,1.088688,1.219651,1.309654,1.424288,1.523393,1.655035,1.810509,1.803135,1.764428,1.754818,1.729088,1.711135,1.669910,1.608874,1.457688,1.582338,1.767223,1.920689,2.098367,2.273739,2.494446,2.748470,3.225820,3.352084,3.290133,3.296510,3.254440,3.250146,3.192425,3.172824,2.934244,2.641817,2.572141,2.506052,2.489971,2.477785,2.504953,2.562560,2.701211,2.531232,2.355013,2.211559,2.081069,1.948080,1.830826,1.671061,1.607974,1.931411,2.097915,2.242553,2.346140,2.468815,2.562714,2.719718,2.783780,2.452996,2.250703,2.102637,1.973139,1.868749,1.756606,1.681125,1.481020,1.130023,0.945664,0.780488,0.651350,0.537763,0.433324,0.378554,0.193679,-0.360818,-0.667627,-0.948771,-1.148175,-1.345437,-1.472643,-1.563766,-1.523905,-1.951929,-2.380537,-2.771843,-3.142580,-3.526089,-3.906093,-4.347357,-4.886909,-5.029426,-5.059394,-5.181722,-5.247926,-5.382851,-5.448966,-5.632235,-5.579516,-4.972722,-4.599956,-4.307838,-4.016265,-3.753617,-3.422414,-3.084382,-2.367140,-2.029762,-2.001838,-1.917018,-1.869173,-1.803557,-1.729118,-1.645914,-1.392003,-1.178379,-1.158137,-1.110240,-1.109080,-1.085938,-1.102974,-1.089037,-1.265286,-1.591203,-1.660085,-1.738376,-1.713781,-1.711513,-1.571078,-1.430174,-0.722519,-0.401940,-0.549401,-0.634034,-0.783621,-0.922244,-1.066776,-1.247385,-1.230497,-0.902010,-0.870244,-0.859872,-0.924696,-1.001720,-1.124875,-1.307393,-1.527423,-1.266646,-1.054346,-0.914828,-0.762013,-0.653569,-0.461184,-0.337614,0.421183,1.424867,1.671788,1.945033,2.030213,2.144976,2.134015,2.108033,1.975313,2.319110,2.535508,2.731395,2.842960,2.969233,3.027246,3.097326,3.152254,3.331997,3.358267,3.408984,3.355705,3.332484,3.183159,3.040842,2.527326,2.345710,2.380304,2.378922,2.376067,2.364301,2.335675,2.285742,2.318828,2.618927,2.667278,2.730029,2.652422,2.614191,2.390438,2.195843,1.324155,0.734964,0.661992,0.538882,0.450604,0.341946,0.181720,-0.021767,-0.551112,-0.593301,-0.416458,-0.297696,-0.190440,-0.076423,-0.050225,0.032715,-0.479738,-1.267562,-1.389783,-1.521791,-1.521344,-1.529125,-1.492327,-1.409580,-1.576512,-2.262456,-2.472407,-2.678937,-2.728447,-2.808483,-2.761791,-2.732078,-2.481526,-2.459303,-2.479085,-2.496050,-2.462636,-2.444041,-2.355056,-2.275382,-1.999003,-1.865386,-1.830586,-1.784394,-1.720052,-1.652947,-1.544794,-1.406353
-1.103403,-1.261655,-1.408657,-1.529205,-1.612118,-1.716212,-1.770522,-1.899764,-1.831147,-1.300354,-0.986548,-0.724290,-0.479553,-0.246924,0.019159,0.294963,0.813597,1.116448,1.196100,1.321249,1.406300,1.516652,1.611295,1.739118,1.886788,1.870314,1.827616,1.813846,1.785441,1.764454,1.721713,1.658462,1.511849,1.645022,1.830564,1.985269,2.161864,2.337291,2.555630,2.809506,3.277196,3.383295,3.311109,3.308004,3.258009,3.245523,3.179795,3.150796,2.900852,2.609200,2.540824,2.474576,2.457954,2.445025,2.470396,2.526538,2.656358,2.475307,2.296856,2.150550,2.019789,1.885935,1.770500,1.612621,1.561724,1.889837,2.051577,2.193067,2.290887,2.408662,2.494611,2.643858,2.688569,2.345250,2.139723,1.986988,1.853876,1.745066,1.628177,1.546703,1.336294,0.982974,0.799492,0.633616,0.503712,0.388577,0.281185,0.222097,0.023368,-0.534559,-0.836060,-1.114215,-1.309148,-1.502926,-1.626793,-1.714839,-1.681585,-2.120320,-2.545402,-2.935009,-3.299146,-3.678125,-4.048846,-4.483357,-5.002972,-5.121457,-5.136667,-5.244964,-5.296784,-5.417556,-5.466680,-5.632050,-5.545728,-4.918919,-4.540289,-4.238970,-3.941222,-3.670038,-3.332780,-2.984920,-2.267127,-1.947236,-1.925502,-1.844714,-1.798486,-1.733738,-1.658874,-1.573834,-1.318035,-1.112639,-1.097646,-1.053979,-1.056115,-1.036289,-1.056566,-1.047028,-1.231091,-1.552639,-1.613803,-1.685712,-1.653731,-1.643666,-1.494986,-1.342520,-0.629896,-0.333019,-0.489406,-0.580958,-0.732054,-0.872387,-1.013583,-1.190286,-1.158028,-0.829250,-0.800947,-0.792701,-0.857621,-0.934934,-1.054706,-1.234408,-1.437404,-1.161054,-0.944174,-0.798843,-0.640574,-0.525215,-0.323968,-0.186951,0.593814,1.580830,1.809684,2.069747,2.143250,2.247442,2.228487,2.194726,2.066205,2.413046,2.621465,2.810544,2.913632,3.032136,3.082096,3.144788,3.194635,3.365477,3.380757,3.420846,3.356958,3.322583,3.162960,3.008053,2.489104,2.317756,2.352967,2.350823,2.345460,2.331046,2.299800,2.247853,2.284721,2.579264,2.615954,2.667950,2.578168,2.526979,2.289580,2.077153,1.191866,0.621705,0.556836,0.438134,0.351416,0.242930,0.082119,-0.124446,-0.647589,-0.668443,-0.487008,-0.364426,-0.259312,-0.147594,-0.129357,-0.057503,-0.592808,-1.367413,-1.475962,-1.598302,-1.591285,-1.593446,-1.555440,-1.473386,-1.656134,-2.336823,-2.532218,-2.727166,-2.764679,-2.833320,-2.775950,-2.734836,-2.477865,-2.456077,-2.470741,-2.481980,-2.442071,-2.416569,-2.320783,-2.233062,-1.951536,-1.820623,-1.784570,-1.736120,-1.669147,-1.598861,-1.488437,-1.346865
-1.052573,-1.214873,-1.358138,-1.475632,-1.553469,-1.652574,-1.699847,-1.820773,-1.736676,-1.203998,-0.893440,-0.631986,-0.389339,-0.157425,0.106376,0.381655,0.893050,1.182690,1.256117,1.375690,1.456257,1.562280,1.652660,1.776262,1.916697,1.894098,1.849150,1.832656,1.802740,1.779900,1.736630,1.672613,1.530976,1.668442,1.852168,2.005839,2.179516,2.352832,2.566850,2.817512,3.272755,3.363535,3.285118,3.275460,3.220569,3.202540,3.132050,3.096873,2.842092,2.554551,2.487918,2.422371,2.405576,2.392289,2.416100,2.470536,2.592626,2.406096,2.228279,2.081783,1.952437,1.819622,1.706866,1.552233,1.510433,1.837777,1.994223,2.131791,2.224404,2.337329,2.416698,2.558722,2.589433,2.241606,2.036349,1.882240,1.748247,1.637697,1.518941,1.434298,1.219305,0.868699,0.688075,0.523746,0.394901,0.280101,0.171970,0.110606,-0.095319,-0.648795,-0.942911,-1.215579,-1.405016,-1.593996,-1.714025,-1.798853,-1.770599,-2.211405,-2.628827,-3.012478,-3.367565,-3.738751,-4.098476,-4.522968,-5.022355,-5.122682,-5.127444,-5.224660,-5.265846,-5.375299,-5.412009,-5.562908,-5.454283,-4.821239,-4.443172,-4.139149,-3.840757,-3.566961,-3.229626,-2.879197,-2.169816,-1.866003,-1.848838,-1.771843,-1.727305,-1.663955,-1.589713,-1.504438,-1.250461,-1.053302,-1.042143,-1.001951,-1.006353,-0.989074,-1.011357,-1.004994,-1.192233,-1.506803,-1.561852,-1.628443,-1.591720,-1.576357,-1.423767,-1.265131,-0.557785,-0.281023,-0.441700,-0.536940,-0.687234,-0.827036,-0.964182,-1.136005,-1.093457,-0.768505,-0.742957,-0.736290,-0.800481,-0.877048,-0.993001,-1.168543,-1.357208,-1.073419,-0.856012,-0.708420,-0.548299,-0.429547,-0.224604,-0.079919,0.706552,1.669886,1.883376,2.131086,2.195571,2.291138,2.266858,2.228102,2.104075,2.448783,2.649101,2.831129,2.927062,3.038713,3.082462,3.139250,3.184953,3.347513,3.354966,3.387175,3.316695,3.274986,3.110160,2.948398,2.432031,2.269920,2.305129,2.302482,2.295442,2.279363,2.246679,2.193967,2.233013,2.520085,2.548218,2.592099,2.494955,2.435383,2.191408,1.969185,1.085293,0.535349,0.476907,0.362724,0.278154,0.171117,0.011870,-0.194305,-0.706725,-0.712492,-0.530088,-0.406351,-0.304014,-0.195264,-0.182785,-0.119518,-0.664151,-1.420075,-1.517788,-1.631907,-1.620409,-1.618637,-1.580257,-1.499690,-1.691194,-2.359890,-2.542770,-2.727278,-2.755991,-2.815869,-2.751779,-2.703241,-2.444958,-2.423738,-2.434665,-2.441785,-2.397850,-2.367860,-2.268518,-2.176277,-1.894623,-1.767193,-1.730712,-1.681286,-1.613304,-1.541667,-1.431018,-1.289004
-1.021840,-1.187529,-1.328785,-1.444641,-1.519305,-1.615378,-1.658020,-1.773722,-1.678720,-1.142716,-0.833193,-0.571289,-0.329143,-0.096832,0.166416,0.442387,0.950788,1.232502,1.301953,1.418171,1.495979,1.599448,1.687259,1.808446,1.944472,1.917599,1.870940,1.852520,1.821457,1.797263,1.753466,1.688681,1.549905,1.690831,1.874017,2.027569,2.199915,2.372449,2.584330,2.833752,3.282225,3.362877,3.279901,3.265724,3.207276,3.185388,3.111373,3.071838,2.812776,2.526948,2.461251,2.395934,2.378956,2.365373,2.388208,2.441686,2.558958,2.367968,2.189906,2.042720,1.913847,1.781234,1.669879,1.516875,1.481136,1.809204,1.962628,2.098040,2.187447,2.297488,2.372660,2.510289,2.531545,2.179307,1.973450,1.817812,1.682705,1.570543,1.450057,1.362924,1.143975,0.793885,0.614525,0.450624,0.322011,0.207001,0.097954,0.034798,-0.176835,-0.729381,-1.019572,-1.289531,-1.475933,-1.662356,-1.780219,-1.863171,-1.838228,-2.282133,-2.695913,-3.076959,-3.427214,-3.794490,-4.148072,-4.567335,-5.054799,-5.143094,-5.140732,-5.230742,-5.264815,-5.366946,-5.395309,-5.536890,-5.412601,-4.772875,-4.393748,-4.086715,-3.786742,-3.510114,-3.171438,-2.817913,-2.111573,-1.817591,-1.803484,-1.728789,-1.685237,-1.622600,-1.548499,-1.462739,-1.209036,-1.016757,-1.008176,-0.970207,-0.976173,-0.960571,-0.984310,-0.980094,-1.170220,-1.481221,-1.532300,-1.595509,-1.555403,-1.536359,-1.380512,-1.217052,-0.510612,-0.246546,-0.410769,-0.508895,-0.659215,-0.799188,-0.934090,-1.103232,-1.053486,-0.729909,-0.706145,-0.700533,-0.764472,-0.840820,-0.954605,-1.127973,-1.307562,-1.017601,-0.799003,-0.649302,-0.487302,-0.365776,-0.157523,-0.007042,0.786335,1.737159,1.940958,2.181170,2.239735,2.329770,2.301756,2.259436,2.138008,2.482574,2.678119,2.856023,2.947429,3.054821,3.094490,3.147458,3.190504,3.348022,3.350151,3.377096,3.301839,3.254956,3.085943,2.918876,2.402301,2.245888,2.281230,2.278228,2.270014,2.252735,2.218944,2.165507,2.206192,2.489253,2.511641,2.550143,2.447592,2.382062,2.132658,1.902889,1.016572,0.478350,0.424079,0.312549,0.229125,0.122669,-0.036117,-0.242813,-0.749859,-0.745332,-0.561568,-0.436570,-0.335741,-0.228604,-0.220014,-0.162377,-0.715469,-1.461508,-1.552186,-1.661120,-1.646515,-1.642047,-1.603264,-1.523406,-1.721629,-2.384678,-2.559702,-2.737776,-2.760581,-2.814697,-2.745767,-2.691968,-2.431800,-2.410888,-2.419302,-2.423632,-2.376777,-2.343603,-2.241451,-2.145767,-1.862949,-1.737415,-1.700501,-1.650218,-1.581287,-1.508453,-1.397226,-1.254369
-0.992462,-1.162326,-1.301913,-1.416409,-1.487935,-1.581093,-1.618935,-1.729448,-1.622482,-1.081126,-0.771666,-0.508401,-0.265977,-0.032461,0.231082,0.508722,1.015635,1.289832,1.355271,1.468297,1.543421,1.644512,1.729875,1.848892,1.980666,1.949139,1.900497,1.879960,1.847566,1.821845,1.777338,1.711514,1.575327,1.720422,1.903648,2.057588,2.229092,2.401372,2.611684,2.860621,3.303373,3.373483,3.285358,3.266311,3.203867,3.177786,3.099758,3.055435,2.790932,2.505972,2.441053,2.375761,2.358532,2.344588,2.366458,2.419092,2.531613,2.335220,2.156297,2.007879,1.879078,1.746236,1.636001,1.484222,1.454834,1.784779,1.935492,2.069058,2.155341,2.262672,2.333618,2.467017,2.478247,2.120115,1.912926,1.755133,1.618382,1.504120,1.381382,1.291297,1.067388,0.716672,0.538058,0.374065,0.245267,0.129647,0.019253,-0.046029,-0.264467,-0.817879,-1.104854,-1.372829,-1.556617,-1.740936,-1.856882,-1.938110,-1.916618,-2.365327,-2.776609,-3.156153,-3.502428,-3.866764,-4.214974,-4.630065,-5.106438,-5.182182,-5.172205,-5.254824,-5.281416,-5.376074,-5.395619,-5.527728,-5.386295,-4.737284,-4.355750,-4.044470,-3.741801,-3.461220,-3.119971,-2.761952,-2.056484,-1.772011,-1.761123,-1.688632,-1.645985,-1.583899,-1.509701,-1.423133,-1.168871,-0.981154,-0.975297,-0.939574,-0.947232,-0.933367,-0.958741,-0.956803,-1.150651,-1.458887,-1.505899,-1.565708,-1.521856,-1.498818,-1.338970,-1.169809,-0.461960,-0.210562,-0.379124,-0.480662,-0.631514,-0.772141,-0.905099,-1.071949,-1.014349,-0.691152,-0.669215,-0.664709,-0.728593,-0.804965,-0.916817,-1.088448,-1.258949,-0.961424,-0.740819,-0.588362,-0.423813,-0.298915,-0.086429,0.070748,0.874166,1.814829,2.008968,2.241981,2.294422,2.378852,2.346758,2.300490,2.181429,2.527003,2.718109,2.892206,2.979086,3.082292,3.117739,3.166806,3.207158,3.359823,3.356275,3.377690,3.297079,3.244515,3.070462,2.897170,2.378636,2.227779,2.263382,2.259992,2.250496,2.231878,2.196790,2.142401,2.184971,2.464701,2.481033,2.513919,2.405251,2.333139,2.077099,1.838500,0.946615,0.419098,0.369099,0.260027,0.177545,0.071352,-0.087476,-0.295422,-0.798436,-0.782903,-0.597070,-0.470303,-0.370746,-0.264971,-0.260505,-0.208685,-0.772669,-1.510662,-1.594134,-1.697898,-1.679925,-1.672563,-1.633221,-1.553850,-1.759914,-2.419165,-2.586387,-2.758190,-2.774765,-2.822910,-2.748580,-2.688983,-2.425929,-2.405275,-2.411033,-2.412400,-2.362269,-2.325583,-2.220087,-2.120406,-1.835394,-1.711461,-1.673961,-1.622594,-1.552418,-1.478061,-1.365844,-1.221604
-0.964652,-1.138830,-1.276933,-1.390221,-1.458738,-1.549130,-1.582283,-1.687809,-1.568923,-1.021661,-0.711903,-0.446991,-0.204011,0.030965,0.295106,0.574712,1.080748,1.347854,1.409414,1.519425,1.591990,1.690852,1.773901,1.890917,2.018653,1.982502,1.931847,1.909198,1.875456,1.848200,1.802940,1.736017,1.602222,1.751597,1.935074,2.089576,2.260450,2.432680,2.641689,2.890438,3.328064,3.387862,3.294560,3.270687,3.204232,3.173986,3.091911,3.042818,2.772641,2.488205,2.423979,2.358636,2.341139,2.326822,2.347766,2.399630,2.507597,2.305649,2.125669,1.975865,1.846984,1.713761,1.604504,1.453755,1.430595,1.762774,1.910990,2.042891,2.126195,2.230979,2.297839,2.427223,2.428583,2.064224,1.855479,1.695378,1.556847,1.440384,1.315282,1.222182,0.993122,0.641381,0.463295,0.299020,0.169890,0.053533,-0.058317,-0.125769,-0.351171,-0.906081,-1.190219,-1.456548,-1.637974,-1.820433,-1.934625,-2.014247,-1.996133,-2.450098,-2.859396,-3.237901,-3.580655,-3.942515,-4.285836,-4.697295,-5.163288,-5.226746,-5.209250,-5.284678,-5.303926,-5.391325,-5.402199,-5.525123,-5.366624,-4.707704,-4.323353,-4.007524,-3.701845,-3.417039,-3.072859,-2.709992,-2.004563,-1.729135,-1.721407,-1.651004,-1.609201,-1.547586,-1.473205,-1.385740,-1.130631,-0.947195,-0.944016,-0.910466,-0.919801,-0.907633,-0.934647,-0.934952,-1.132696,-1.438565,-1.481620,-1.538149,-1.490551,-1.463548,-1.299570,-1.124591,-0.414531,-0.175330,-0.348367,-0.453385,-0.604939,-0.746374,-0.877570,-1.042353,-0.976943,-0.653745,-0.633583,-0.630163,-0.694068,-0.770552,-0.880629,-1.050746,-1.212486,-0.907157,-0.684317,-0.528966,-0.361711,-0.233345,-0.016437,0.147524,0.961776,1.893515,2.078355,2.304542,2.351006,2.430009,2.393854,2.343641,2.226775,2.573744,2.760696,2.931242,3.013762,3.112961,3.144285,3.189565,3.227308,3.375366,3.366217,3.382203,3.296221,3.237993,3.058771,2.879138,2.358070,2.212516,2.248417,2.244640,2.233870,2.213911,2.177504,2.122112,2.166591,2.443362,2.453741,2.481129,2.366304,2.287619,2.024738,1.777157,0.878744,0.361168,0.315322,0.208548,0.126898,0.020842,-0.138213,-0.347634,-0.847257,-0.820855,-0.632765,-0.504108,-0.405688,-0.301133,-0.300729,-0.254583,-0.829961,-1.560880,-1.637343,-1.736132,-1.714818,-1.704595,-1.664654,-1.585673,-1.799706,-2.455979,-2.615704,-2.781525,-2.791976,-2.834291,-2.754551,-2.689168,-2.422961,-2.402538,-2.405684,-2.404131,-2.350712,-2.310522,-2.201607,-2.097868,-1.810361,-1.687863,-1.649742,-1.597247,-1.525762,-1.449816,-1.336492,-1.190723
-0.939212,-1.118055,-1.254994,-1.367335,-1.433019,-1.520869,-1.549446,-1.650259,-1.519289,-0.964955,-0.654215,-0.387080,-0.143009,0.093936,0.359256,0.641433,1.147721,1.408388,1.466237,1.573502,1.643691,1.740562,1.821501,1.936792,2.060807,2.019988,1.967225,1.942432,1.907277,1.878438,1.832332,1.764169,1.632451,1.786401,1.970535,2.125938,2.296566,2.469127,2.677309,2.926423,3.359936,3.409640,3.310996,3.282285,3.211704,3.177261,3.090990,3.037057,2.760655,2.476107,2.412426,2.346886,2.329084,2.314366,2.334438,2.385653,2.489345,2.281438,2.100011,1.948499,1.819254,1.685358,1.576827,1.426767,1.409731,1.744862,1.890931,2.021473,2.102007,2.204499,2.267455,2.393144,2.384719,2.013374,1.802625,1.639879,1.499275,1.380370,1.252646,1.156350,0.921674,0.568135,0.390178,0.225258,0.095512,-0.021833,-0.135375,-0.205130,-0.437938,-0.995564,-1.277520,-1.542809,-1.722294,-1.903313,-2.016018,-2.094225,-2.079420,-2.539607,-2.947844,-3.326160,-3.666181,-4.026390,-4.365622,-4.774394,-5.231126,-5.282541,-5.257548,-5.326012,-5.338019,-5.418414,-5.420714,-5.534801,-5.359024,-4.688815,-4.300818,-3.979777,-3.670433,-3.380806,-3.032955,-2.664475,-1.957520,-1.690450,-1.685839,-1.617352,-1.576292,-1.515008,-1.440280,-1.351731,-1.095216,-0.915618,-0.915089,-0.883619,-0.894637,-0.884124,-0.912826,-0.915357,-1.117403,-1.421603,-1.460831,-1.514231,-1.462813,-1.431818,-1.263379,-1.082243,-0.368413,-0.140779,-0.318636,-0.427340,-0.579925,-0.722475,-0.852216,-1.015315,-0.942015,-0.618098,-0.599652,-0.597301,-0.661368,-0.738133,-0.846694,-1.015687,-1.169097,-0.855351,-0.629800,-0.471234,-0.300924,-0.168834,0.052941,0.223992,1.050796,1.975753,2.151781,2.371699,2.412339,2.486136,2.445873,2.391637,2.276688,2.625810,2.809057,2.976461,3.054839,3.150284,3.177590,3.219213,3.254452,3.398270,3.383546,3.394185,3.302685,3.238712,3.053963,2.867644,2.342907,2.202289,2.238566,2.234397,2.222340,2.201005,2.163209,2.106700,2.153171,2.427621,2.432120,2.454116,2.332930,2.247551,1.977304,1.720264,0.813384,0.304519,0.262690,0.157956,0.076952,-0.029205,-0.188837,-0.400186,-0.897555,-0.860315,-0.669570,-0.538753,-0.441242,-0.337665,-0.341287,-0.300667,-0.888621,-1.614147,-1.683830,-1.777902,-1.753228,-1.740144,-1.699522,-1.620751,-1.843163,-2.497938,-2.650583,-2.810839,-2.815241,-2.851866,-2.766584,-2.695318,-2.425394,-2.405155,-2.405718,-2.401266,-2.344468,-2.300713,-2.188165,-2.080172,-1.789553,-1.668206,-1.629384,-1.575654,-1.502712,-1.425022,-1.310349,-1.162738
-0.911366,-1.095478,-1.231186,-1.342527,-1.405092,-1.490158,-1.513659,-1.609281,-1.464816,-0.902362,-0.590385,-0.320657,-0.075259,0.163985,0.430739,0.715905,1.222709,1.476338,1.530089,1.634350,1.701930,1.796634,1.875263,1.988690,2.108626,2.062599,2.007469,1.980280,1.943539,1.912926,1.865858,1.796286,1.666815,1.825923,2.010873,2.167348,2.337782,2.510793,2.718151,2.967786,3.396930,3.435434,3.330806,3.296703,3.221502,3.182377,3.091401,3.032062,2.748611,2.463807,2.400701,2.334914,2.316764,2.301594,2.320706,2.371223,2.470209,2.255583,2.072462,1.918981,1.789271,1.654565,1.546791,1.397425,1.387191,1.725760,1.869509,1.998601,2.076094,2.176084,2.234730,2.356370,2.337062,1.957780,1.744703,1.578942,1.435968,1.314293,1.183595,1.083701,0.842671,0.486970,0.309074,0.143361,0.012870,-0.105629,-0.221104,-0.293452,-0.534602,-1.095506,-1.375167,-1.639422,-1.816833,-1.996335,-2.107440,-2.184110,-2.172977,-2.640293,-3.047542,-3.425822,-3.762964,-4.121504,-4.456349,-4.862322,-5.308971,-5.347021,-5.313684,-5.374438,-5.378400,-5.451045,-5.443813,-5.548130,-5.353064,-4.669992,-4.277763,-3.950777,-3.637217,-3.342096,-2.990001,-2.615110,-1.906130,-1.648228,-1.647080,-1.580690,-1.540439,-1.479493,-1.404346,-1.314551,-1.056353,-0.880938,-0.883355,-0.854182,-0.867077,-0.858401,-0.888992,-0.893998,-1.100920,-1.403405,-1.438397,-1.488343,-1.432656,-1.397209,-1.223732,-1.035667,-0.317315,-0.102433,-0.285732,-0.398584,-0.552387,-0.696242,-0.824425,-0.985728,-0.903622,-0.578756,-0.562209,-0.561046,-0.625322,-0.702436,-0.809361,-0.977183,-1.121404,-0.798155,-0.569486,-0.407271,-0.233487,-0.097195,0.130093,0.309107,1.150249,2.068095,2.234409,2.447461,2.481645,2.549687,2.504840,2.446104,2.333234,2.684912,2.864125,3.028113,3.101923,3.193239,3.216091,3.253668,3.286141,3.425311,3.404381,3.409081,3.311404,3.241014,3.050037,2.856198,2.327137,2.191941,2.228653,2.224047,2.210553,2.187680,2.148321,2.090544,2.139251,2.411249,2.409212,2.425225,2.296911,2.204050,1.925488,1.657814,0.741100,0.241682,0.204300,0.101786,0.021461,-0.084857,-0.245204,-0.458794,-0.953889,-0.904583,-0.710797,-0.577518,-0.480973,-0.378435,-0.386534,-0.352039,-0.954248,-1.674114,-1.736291,-1.825165,-1.796742,-1.780473,-1.739074,-1.660501,-1.892330,-2.545745,-2.690590,-2.844734,-2.842411,-2.872730,-2.781247,-2.703407,-2.429226,-2.409181,-2.406873,-2.399195,-2.338614,-2.290877,-2.174237,-2.061465,-1.767252,-1.647128,-1.607509,-1.552380,-1.477784,-1.398120,-1.281894,-1.132168
-0.888445,-1.078389,-1.213483,-1.324331,-1.384163,-1.466910,-1.485637,-1.576673,-1.418640,-0.846029,-0.531557,-0.258206,-0.010505,0.231951,0.501200,0.790433,1.299858,1.547791,1.597832,1.699645,1.765002,1.858021,1.934763,2.046875,2.163395,2.112175,2.054540,2.024936,1.986516,1.954072,1.905882,1.834664,1.706810,1.871538,2.058047,2.216209,2.387171,2.561340,2.768776,3.019959,3.446705,3.474615,3.363801,3.324375,3.244423,3.200636,3.104761,3.039981,2.748570,2.462326,2.399509,2.333207,2.314648,2.298979,2.317249,2.367307,2.462190,2.240209,2.054695,1.898679,1.767978,1.631928,1.524430,1.375105,1.371360,1.714651,1.856774,1.985015,2.059912,2.157919,2.212672,2.330932,2.301091,1.912595,1.696390,1.527037,1.381188,1.256342,1.122240,1.018471,0.770329,0.411060,0.232475,0.065306,-0.066448,-0.186552,-0.304368,-0.379510,-0.629682,-1.196088,-1.474718,-1.739087,-1.915250,-2.094048,-2.204083,-2.279597,-2.271945,-2.748068,-3.156075,-3.535908,-3.871698,-4.230139,-4.562175,-4.967163,-5.406000,-5.431373,-5.389881,-5.443485,-5.439738,-5.505245,-5.488828,-5.584198,-5.369789,-4.671499,-4.273559,-3.939494,-3.620569,-3.318932,-2.961286,-2.578666,-1.864768,-1.614589,-1.616762,-1.552109,-1.512464,-1.451588,-1.375722,-1.284355,-1.023459,-0.851325,-0.856581,-0.829493,-0.844244,-0.837295,-0.869828,-0.877233,-1.089707,-1.391814,-1.422882,-1.469722,-1.409699,-1.369828,-1.190786,-0.995277,-0.269570,-0.066033,-0.255328,-0.372637,-0.528254,-0.673967,-0.801191,-0.961445,-0.870538,-0.543397,-0.528605,-0.528577,-0.593324,-0.671096,-0.776899,-0.944301,-1.080301,-0.746569,-0.513946,-0.347548,-0.169697,-0.028798,0.204738,0.392151,1.250591,2.165456,2.323137,2.530488,2.558615,2.621416,2.571977,2.508675,2.397327,2.752935,2.929025,3.090420,3.160153,3.247886,3.266556,3.300404,3.330356,3.465646,3.438670,3.437684,3.333664,3.256817,3.059056,2.857183,2.321751,2.191196,2.228480,2.223433,2.208502,2.184056,2.143032,2.083795,2.134853,2.405637,2.397315,2.407647,2.271950,2.171514,1.883798,1.604788,0.674784,0.182346,0.149077,0.048266,-0.031743,-0.138662,-0.300370,-0.517008,-1.011994,-0.950892,-0.753373,-0.617171,-0.521148,-0.419179,-0.431613,-0.402854,-1.021279,-1.738728,-1.793958,-1.878211,-1.846070,-1.826673,-1.784354,-1.705641,-1.947488,-2.602337,-2.740297,-2.889217,-2.880427,-2.904815,-2.806993,-2.722513,-2.443093,-2.423151,-2.418076,-2.407268,-2.342799,-2.291036,-2.169978,-2.052143,-1.753244,-1.633791,-1.593240,-1.536538,-1.460040,-1.378146,-1.259941,-1.107555
